# .PCD v0.7 - Point Cloud Data file format
VERSION 0.7
FIELDS x y z rgb
SIZE 4 4 4 4
TYPE F F F F
COUNT 1 1 1 1
WIDTH 965
HEIGHT 1
VIEWPOINT 0 0 0 1 0 0 0
POINTS 965
DATA ascii
0.77373993 -0.24017757 -0.072378725 1.5669642e-38
0.77535272 -0.24098863 -0.072198242 1.4748044e-38
0.77343696 -0.23926851 -0.07220912 1.3921546e-38
0.7718274 -0.23846243 -0.072387367 4.3324855e-39
0.77152497 -0.237555 -0.07221809 2.9581411e-42
0.76991856 -0.2367539 -0.072394103 8.7118726e-42
0.76771212 -0.23414785 -0.07223025 8.7146751e-42
0.76889133 -0.23492077 -0.07292816 6.4905763e-40
0.76828754 -0.23310918 -0.072590232 7.634274e-42
0.76738185 -0.23039179 -0.072083294 6.1993444e-42
0.76635462 -0.22855864 -0.072617382 5.4874848e-42
0.77056074 -0.22860765 -0.072027683 2.9637463e-42
0.76692551 -0.22750846 -0.072976798 5.4874848e-42
0.77062583 -0.22557539 -0.072090119 2.5980074e-42
0.7684499 -0.22253525 -0.072832674 3.7022305e-42
0.77177811 -0.22207177 -0.072770774 1.1560712e-42
0.76814586 -0.22162291 -0.072662473 4.0623642e-42
0.76784182 -0.22071056 -0.072492272 4.4182941e-42
0.77216208 -0.22090393 -0.072997659 1.1658803e-42
0.76753771 -0.21979821 -0.072322071 4.7798291e-42
0.76723361 -0.21888587 -0.07215187 4.4267018e-42
0.77113259 -0.21836585 -0.072437346 1.1658803e-42
0.76965684 -0.21659592 -0.072498798 5.1273511e-42
0.76935112 -0.21567865 -0.072327703 5.4874848e-42
0.7699126 -0.21459576 -0.072677851 5.4874848e-42
0.77287591 -0.21485472 -0.072020501 1.1560712e-42
0.77177078 -0.21336433 -0.072660595 5.1273511e-42
0.77325892 -0.21369016 -0.07224676 1.1560712e-42
0.77362978 -0.21212649 -0.07263577 4.7798291e-42
0.7760427 -0.21269405 -0.0723885 1.5162049e-42
0.77418846 -0.21103057 -0.072980344 4.7798291e-42
0.77579927 -0.21181095 -0.072776705 5.4958926e-42
0.77642679 -0.21152616 -0.072615415 1.5162049e-42
0.77387947 -0.21010348 -0.072807401 5.4874848e-42
0.77357048 -0.20917639 -0.072634459 5.8490198e-42
0.77487063 -0.20902477 -0.072256953 5.8490198e-42
0.77604747 -0.20978147 -0.072945505 5.4874848e-42
0.77850521 -0.20984331 -0.072362304 1.1658803e-42
0.78091776 -0.20999354 -0.072270513 1.1658803e-42
0.7820195 -0.20948768 -0.072889268 4.4701421e-43
0.78300524 -0.20829579 -0.072012573 2.5980074e-42
0.77542734 -0.20792073 -0.072598398 6.5650833e-42
0.78581583 -0.20725346 -0.072141647 2.9581411e-42
0.77511722 -0.20699038 -0.072424859 6.925217e-42
0.78692293 -0.20673615 -0.072759569 2.2476827e-42
0.7893554 -0.20685661 -0.072654992 3.6770072e-42
0.79107046 -0.20631343 -0.072158903 3.32388e-42
0.78974426 -0.20567402 -0.072884738 2.791835e-40
0.79145992 -0.20512918 -0.072388947 8.0294402e-43
0.79707742 -0.20598578 -0.072543621 7.1960277e-39
0.78081697 -0.24527322 -0.071983129 1.4562944e-38
0.77962255 -0.24447055 -0.071290731 1.4746612e-38
0.77931798 -0.24355656 -0.071120232 1.4931003e-38
0.77769864 -0.2427371 -0.071307093 1.4838808e-38
0.77577847 -0.24101029 -0.071321517 1.4655495e-38
0.77608198 -0.24192099 -0.07149139 1.4655139e-38
0.77416492 -0.24019919 -0.07150355 1.5761837e-38
0.77225161 -0.23848401 -0.071513772 5.2547978e-39
0.77194917 -0.23757657 -0.071344495 7.2685351e-42
0.77034199 -0.23677544 -0.071522087 5.840612e-42
0.76858675 -0.23552558 -0.071612805 8.0014142e-42
0.76783341 -0.23326519 -0.071191132 5.8462172e-42
0.76710939 -0.23233953 -0.071892887 5.8462172e-42
0.76680803 -0.23143536 -0.071724236 5.8462172e-42
0.7697916 -0.23094666 -0.071573287 6.5861028e-44
0.76707995 -0.22948599 -0.071914315 5.8378094e-42
0.77017617 -0.22977716 -0.0718005 1.1462621e-42
0.76677805 -0.22858018 -0.071745336 5.1273511e-42
0.76647615 -0.22767439 -0.071576387 5.4874848e-42
0.76704729 -0.22662261 -0.071933895 4.7672174e-42
0.77024174 -0.22674322 -0.071863234 2.6036125e-42
0.76674485 -0.22571519 -0.071764618 4.0483513e-42
0.76960063 -0.22302419 -0.071532339 2.2378736e-42
0.76887643 -0.22255696 -0.07195434 5.1273511e-42
0.76857233 -0.22164461 -0.071784139 5.8490198e-42
0.76998365 -0.22185963 -0.071758598 1.8763386e-42
0.76826829 -0.22073227 -0.071613938 4.7798291e-42
0.76796418 -0.21981992 -0.071443766 4.4182941e-42
0.77134395 -0.21951312 -0.071115494 4.4000772e-43
0.76852953 -0.21874852 -0.07179603 5.1399628e-42
0.77172697 -0.2183485 -0.071341753 4.4000772e-43
0.77210999 -0.21718395 -0.071568012 1.1560712e-42
0.77008563 -0.21661773 -0.071615756 4.7672174e-42
0.772493 -0.21601933 -0.071794242 1.1560712e-42
0.76977992 -0.21570046 -0.071444631 4.7672174e-42
0.77034223 -0.21461761 -0.071793228 5.1273511e-42
0.7738533 -0.21367279 -0.071151167 1.1560712e-42
0.77423632 -0.2125082 -0.071377397 1.1560712e-42
0.77702296 -0.21150875 -0.071516722 1.5162049e-42
0.77740693 -0.21034092 -0.071743608 1.5162049e-42
0.77910221 -0.20982587 -0.071262091 1.1658803e-42
0.78151631 -0.20997608 -0.071167201 1.1658803e-42
0.782619 -0.20947021 -0.071784407 1.8763386e-42
0.78542852 -0.20843118 -0.071912855 2.5980074e-42
0.78641689 -0.20723593 -0.071033716 2.9581411e-42
0.7868042 -0.20605823 -0.071262509 2.9581411e-42
0.78995895 -0.206839 -0.071542472 2.5980074e-42
0.79206443 -0.20511153 -0.071274877 7.5670117e-44
0.78035444 -0.24540626 -0.070581347 1.4470748e-38
0.78167301 -0.24531677 -0.070220172 1.4562944e-38
0.7800498 -0.24449228 -0.070410818 1.4654411e-38
0.77812517 -0.2427588 -0.070428759 1.502212e-38
0.77635598 -0.24148729 -0.070529684 1.4655135e-38
0.77458984 -0.24022081 -0.070628375 1.5761484e-38
0.77297819 -0.23941302 -0.070809454 1.4474717e-38
0.77267575 -0.23850559 -0.070640177 6.0849144e-39
0.77237332 -0.23759815 -0.070470899 8.3447324e-42
0.77076542 -0.23679699 -0.070650071 7.2685351e-42
0.76885879 -0.23509501 -0.070658028 8.3615479e-42
0.76916015 -0.23599917 -0.070826679 8.3615479e-42
0.76725662 -0.23430222 -0.070832402 6.925217e-42
0.76665497 -0.23249719 -0.070495665 5.8462172e-42
0.7663542 -0.23159465 -0.070327312 5.8462172e-42
0.76692939 -0.23055272 -0.070685118 6.1993444e-42
0.77038848 -0.23092926 -0.070473045 3.643376e-44
0.76662803 -0.22964856 -0.070516437 6.1993444e-42
0.77077305 -0.22975972 -0.070700258 3.6461786e-42
0.76632667 -0.22874439 -0.070347756 5.1273511e-42
0.7660253 -0.22784024 -0.070179105 5.4874848e-42
0.77045381 -0.22789371 -0.070537657 2.6008099e-42
0.76572394 -0.22693607 -0.070010424 5.4874848e-42
0.7708379 -0.22672582 -0.070764571 1.5204088e-42
0.771222 -0.22555798 -0.070991427 2.9581411e-42
0.76599389 -0.22497854 -0.070197433 5.4874848e-42
0.76656413 -0.2239219 -0.070552468 5.1273511e-42
0.77019501 -0.22300684 -0.070436746 2.5980074e-42
0.76812708 -0.2218204 -0.070383996 4.7672174e-42
0.77057803 -0.22184229 -0.070663005 1.1658803e-42
0.76782358 -0.22090968 -0.070214123 5.8462172e-42
0.77096105 -0.22067767 -0.070889264 4.4701421e-43
0.76752001 -0.21999899 -0.070044219 5.1245485e-42
0.77193844 -0.21949577 -0.070019901 1.5162049e-42
0.77270436 -0.21716657 -0.070472389 1.1560712e-42
0.76964456 -0.21680179 -0.070213944 5.1273511e-42
0.77308738 -0.21600199 -0.070698649 1.1560712e-42
0.76990294 -0.21480501 -0.070390463 5.4874848e-42
0.7734704 -0.21483737 -0.070924908 1.1560712e-42
0.77046549 -0.21372056 -0.070737153 5.1273511e-42
0.7744478 -0.21365544 -0.070055574 1.1560712e-42
0.7748307 -0.21249086 -0.070281804 1.1560712e-42
0.77521372 -0.21132624 -0.070508063 1.5162049e-42
0.777619 -0.21149138 -0.07041806 8.6880505e-44
0.7780031 -0.21032351 -0.070644945 4.4701421e-43
0.77969909 -0.20980847 -0.070161879 1.1658803e-42
0.78211498 -0.20995858 -0.070063919 1.1658803e-42
0.78321838 -0.20945269 -0.070679575 1.1658803e-42
0.78360462 -0.2082783 -0.070907742 1.887549e-42
0.78459024 -0.20708638 -0.070031047 2.5980074e-42
0.78740525 -0.20604068 -0.070154577 2.5980074e-42
0.79095149 -0.20563877 -0.070659667 4.7616122e-42
0.79266882 -0.20509389 -0.070160776 8.4077908e-44
0.79305828 -0.20390964 -0.07039085 4.4701421e-43
0.78210104 -0.24533856 -0.069338679 1.483881e-38
0.78047705 -0.24451402 -0.069530934 1.4655495e-38
0.77885568 -0.24369285 -0.069720596 1.4746965e-38
0.78017247 -0.24360003 -0.069360405 1.4655495e-38
0.77855158 -0.24278049 -0.069550425 1.4838808e-38
0.77574277 -0.24117313 -0.0690476 1.4931003e-38
0.77693343 -0.24196431 -0.069737881 1.502212e-38
0.77501482 -0.24024244 -0.0697532 1.5577093e-38
0.77361453 -0.2394454 -0.069499061 1.4659105e-38
0.77310002 -0.23852718 -0.069766581 7.0990635e-39
0.77279752 -0.23761974 -0.069597304 1.0854458e-41
0.76958275 -0.23602067 -0.069956243 8.7230829e-42
0.77000546 -0.23604217 -0.069085807 7.2923572e-42
0.77118886 -0.23681852 -0.069778055 6.1839301e-42
0.76928145 -0.23511651 -0.069787592 9.0832166e-42
0.7676785 -0.23432368 -0.069963545 7.9972103e-42
0.76810038 -0.23434515 -0.069094658 8.7146751e-42
0.77162123 -0.23465687 -0.069692433 1.1339282e-38
0.76737773 -0.23342118 -0.069795161 6.5580768e-42
0.76707685 -0.23251864 -0.069626808 5.8462172e-42
0.7706008 -0.23208129 -0.06914565 0
0.76677608 -0.23161612 -0.069458455 6.5650833e-42
0.76647532 -0.23071361 -0.069290072 6.202147e-42
0.77098536 -0.23091179 -0.069372833 7.4268819e-44
0.76617444 -0.22981109 -0.069121689 6.202147e-42
0.77066588 -0.22904417 -0.069212109 1.5302179e-42
0.76674932 -0.2287659 -0.06947732 5.1273511e-42
0.76644796 -0.22786175 -0.069308668 5.4874848e-42
0.77104986 -0.22787631 -0.069438994 2.9581411e-42
0.76542258 -0.22603193 -0.069841772 5.1273511e-42
0.76614666 -0.22695759 -0.069139987 5.4874848e-42
0.7665683 -0.22545299 -0.069409877 4.408485e-42
0.77040648 -0.22415411 -0.069114894 2.9581411e-42
0.76683712 -0.22348976 -0.069594234 4.7672174e-42
0.7707895 -0.2229895 -0.069341153 2.2378736e-42
0.7711724 -0.22182494 -0.069567412 1.1658803e-42
0.77155542 -0.22066033 -0.069793671 1.1658803e-42
0.76721644 -0.21908827 -0.069874316 4.4182941e-42
0.76981127 -0.21881375 -0.069156319 5.1273511e-42
0.76907939 -0.21787801 -0.069865733 5.1273511e-42
0.771613 -0.21764612 -0.06985566 1.1560712e-42
0.77329874 -0.21714923 -0.069376796 4.4701421e-43
0.7697674 -0.21590793 -0.069161654 5.4874848e-42
0.77368176 -0.21598464 -0.069603056 4.4701421e-43
0.77406478 -0.21482003 -0.069829315 1.1560712e-42
0.7754252 -0.21247351 -0.069186211 4.3720512e-43
0.77580822 -0.2113089 -0.06941247 7.7071416e-44
0.77821505 -0.21147397 -0.069319367 1.1560712e-42
0.7793144 -0.21097797 -0.069934666 1.1560712e-42
0.78029597 -0.209791 -0.069061667 1.1658803e-42
0.78309917 -0.20876831 -0.069188446 1.1658803e-42
0.78420401 -0.20826077 -0.06980288 2.2476827e-42
0.78701794 -0.20721838 -0.069925815 1.8763386e-42
0.78800642 -0.20602313 -0.069046676 2.5980074e-42
0.78911662 -0.20550409 -0.069660276 3.6770072e-42
0.79155505 -0.20562115 -0.069547117 3.6868163e-42
0.79327333 -0.20507625 -0.069046706 7.9874012e-44
0.79366267 -0.20389199 -0.06927678 2.7594509e-40
0.79405212 -0.20270777 -0.069506824 1.069405e-38
0.78090429 -0.24453576 -0.068651021 1.4747338e-38
0.77897811 -0.24280219 -0.068672091 1.4655495e-38
0.77616775 -0.24119475 -0.068172425 1.493137e-38
0.77735913 -0.24198598 -0.068861157 1.4838808e-38
0.77455324 -0.2403852 -0.068357944 1.5945155e-38
0.77425081 -0.23947777 -0.068188667 1.4659105e-38
0.77352417 -0.23854876 -0.068892986 7.7444329e-39
0.77161229 -0.23684007 -0.068906039 6.8943884e-42
0.77253699 -0.23651683 -0.068746418 1.1150989e-38
0.7697041 -0.23513803 -0.068917125 7.6524909e-42
0.76940274 -0.23423386 -0.068748474 8.7146751e-42
0.7722199 -0.23463941 -0.068589151 8.3876317e-39
0.76779962 -0.23344263 -0.068926305 7.634274e-42
0.76910138 -0.23332971 -0.068579793 7.634274e-42
0.76749879 -0.23254012 -0.068757921 6.5650833e-42
0.77119768 -0.23206389 -0.068045408 0
0.76719797 -0.2316376 -0.068589568 5.8462172e-42
0.7677747 -0.23059574 -0.068944216 6.1993444e-42
0.76819736 -0.23061723 -0.068073779 6.5594781e-42
0.77158237 -0.23089439 -0.06827262 6.5861028e-44
0.76747334 -0.22969157 -0.068775564 5.8378094e-42
0.77126193 -0.22902676 -0.068113416 2.9525359e-42
0.76717198 -0.22878741 -0.068606883 5.4874848e-42
0.76687062 -0.22788325 -0.068438202 5.4874848e-42
0.76656926 -0.22697909 -0.068269521 5.4874848e-42
0.76714265 -0.22592744 -0.068622351 5.1273511e-42
0.77002347 -0.2253187 -0.068888664 2.5980074e-42
0.76653886 -0.22411585 -0.068284392 5.1217459e-42
0.77100086 -0.22413677 -0.068019301 2.2378736e-42
0.76623696 -0.22321004 -0.068115413 5.1273511e-42
0.76680762 -0.22215021 -0.068466693 5.1273511e-42
0.77138388 -0.22297215 -0.06824556 2.2378736e-42
0.76650518 -0.22124276 -0.068297416 3.7022305e-42
0.77105916 -0.22111768 -0.068083823 1.1560712e-42
0.76620275 -0.22033533 -0.068128139 4.0623642e-42
0.77144158 -0.21995473 -0.068309754 1.5162049e-42
0.77182412 -0.21879178 -0.068535686 1.5162049e-42
0.77220654 -0.21762881 -0.068761617 1.5162049e-42
0.76920199 -0.21698576 -0.068815321 5.1273511e-42
0.77356505 -0.21528557 -0.068119437 8.5479206e-44
0.76946223 -0.21499231 -0.068990856 5.4874848e-42
0.77394748 -0.21412262 -0.068345368 4.3720512e-43
0.77504218 -0.21363807 -0.068959981 4.3720512e-43
0.77601957 -0.21245617 -0.068090618 1.1560712e-42
0.77640259 -0.21129155 -0.068316877 1.1560712e-42
0.77919519 -0.2102887 -0.06844759 1.1658803e-42
0.78127754 -0.2086041 -0.068188637 1.5162049e-42
0.78369784 -0.20875084 -0.068085134 1.5344218e-42
0.78480351 -0.20824331 -0.068698049 1.5344218e-42
0.78518975 -0.20706886 -0.068926215 1.8763386e-42
0.79533076 -0.20636919 -0.068694234 8.9683102e-44
0.78617537 -0.20587698 -0.06804952 2.5980074e-42
0.78971851 -0.20548654 -0.068550825 2.9679501e-42
0.79215872 -0.20560354 -0.068434566 2.610619e-42
0.79572129 -0.20518166 -0.068924934 2.0287144e-39
0.78163624 -0.24547148 -0.067941606 1.5022123e-38
0.78206348 -0.24549322 -0.067061692 1.4746256e-38
0.7813316 -0.2445575 -0.067771107 1.4746256e-38
0.77970868 -0.24373624 -0.067963958 1.4655142e-38
0.78013515 -0.24375795 -0.067085624 1.483881e-38
0.77778488 -0.24200763 -0.067984372 1.4747691e-38
0.77821064 -0.24202929 -0.067107648 1.483881e-38
0.77940458 -0.24282388 -0.067793757 1.483881e-38
0.77659267 -0.24121638 -0.06729725 1.4747694e-38
0.77497745 -0.2404068 -0.067484349 1.5945881e-38
0.77467501 -0.23949936 -0.067315072 1.4842776e-38
0.77306294 -0.23869476 -0.067499936 8.3898023e-39
0.7714535 -0.23789351 -0.067682266 1.0377456e-40
0.76954579 -0.23619311 -0.067693651 7.2923572e-42
0.76924497 -0.23529059 -0.067525297 7.6524909e-42
0.76894414 -0.23438808 -0.067356914 7.2783442e-42
0.76864338 -0.23348556 -0.067188561 6.5594781e-42
0.76704133 -0.23269758 -0.067367017 5.8462172e-42
0.7667411 -0.23179668 -0.067198962 5.8462172e-42
0.767896 -0.22971307 -0.067905098 6.1993444e-42
0.76759464 -0.22880891 -0.067736447 5.4874848e-42
0.76699197 -0.22700059 -0.067399114 5.4874848e-42
0.76729333 -0.22790477 -0.067567766 5.4874848e-42
0.76669061 -0.22609644 -0.067230433 5.8490198e-42
0.77023494 -0.22646594 -0.067566812 2.9581411e-42
0.76596659 -0.22517079 -0.067932189 4.7616122e-42
0.76638925 -0.22519228 -0.067061752 4.7616122e-42
0.77061784 -0.22530136 -0.067793041 2.9581411e-42
0.76723182 -0.22217178 -0.067593098 5.1273511e-42
0.76692939 -0.22126435 -0.06742382 5.1273511e-42
0.76749915 -0.22019961 -0.067772597 4.7672174e-42
0.77203524 -0.21993738 -0.067215681 1.5162049e-42
0.76776439 -0.21822089 -0.067950934 5.1273511e-42
0.77241766 -0.21877444 -0.067441612 1.5162049e-42
0.77280009 -0.21761149 -0.067667574 1.1560712e-42
0.76845384 -0.21625732 -0.067249626 5.1273511e-42
0.77318251 -0.21644855 -0.067893475 4.4701421e-43
0.76814973 -0.21534497 -0.067079455 5.4874848e-42
0.7741586 -0.21526825 -0.067025363 8.6880505e-44
0.77454102 -0.21410531 -0.067251295 1.1560712e-42
0.77492344 -0.21294236 -0.067477226 4.3720512e-43
0.77699697 -0.21127421 -0.067221284 1.1658803e-42
0.77737999 -0.21010959 -0.067447513 1.1658803e-42
0.78017533 -0.20910341 -0.067575783 1.5162049e-42
0.78187442 -0.20858669 -0.067088425 2.2294659e-42
0.78468204 -0.2075606 -0.067209691 1.887549e-42
0.78578913 -0.2070514 -0.067821354 2.5980074e-42
0.79348826 -0.20624286 -0.067702532 2.9735553e-42
0.79032052 -0.20546895 -0.067441374 3.6770072e-42
0.78716099 -0.20468503 -0.067172855 1.887549e-42
0.79487157 -0.20385671 -0.067048579 5.0657752e-39
0.78175884 -0.24457924 -0.066891193 1.4746256e-38
0.78529727 -0.24428464 -0.066663057 1.4655139e-38
0.78056169 -0.24377964 -0.06620729 1.4746256e-38
0.77983105 -0.24284558 -0.066915423 1.4931003e-38
0.77540159 -0.24042837 -0.066610754 1.5669291e-38
0.77509916 -0.23952094 -0.066441476 1.4842776e-38
0.77348638 -0.23871629 -0.06662792 9.1266485e-39
0.77047944 -0.23712781 -0.066558719 5.0965225e-42
0.7718761 -0.23791501 -0.06681183 1.026091e-39
0.76996768 -0.23621458 -0.066824794 7.2923572e-42
0.76966691 -0.23531204 -0.06665644 7.6524909e-42
0.76936609 -0.23440954 -0.066488057 7.2783442e-42
0.77102542 -0.23438549 -0.066490799 9.491108e-39
0.76906526 -0.23350704 -0.066319704 7.2783442e-42
0.77140999 -0.23321593 -0.066718012 6.9149875e-39
0.76746249 -0.232719 -0.06649974 5.8462172e-42
0.7671622 -0.23181811 -0.066331655 5.4846822e-42
0.77108979 -0.23134512 -0.066560984 0
0.76686192 -0.23091722 -0.066163629 5.4874848e-42
0.77147388 -0.23017722 -0.066787869 7.9874012e-44
0.7674402 -0.22987548 -0.066515118 5.4874848e-42
0.76683855 -0.22807044 -0.066178352 5.8490198e-42
0.76713932 -0.22897297 -0.066346735 5.4874848e-42
0.76653779 -0.22716792 -0.066009998 5.8462172e-42
0.7704463 -0.22761315 -0.06624496 3.6812111e-42
0.76711327 -0.22611794 -0.066359967 5.8462172e-42
0.77082932 -0.22644857 -0.066471219 2.9581411e-42
0.76681191 -0.2252138 -0.066191316 5.1273511e-42
0.77121234 -0.22528398 -0.066697448 1.8763386e-42
0.76629925 -0.22429888 -0.066457853 5.1245485e-42
0.77159524 -0.2241194 -0.066923708 2.2378736e-42
0.76578653 -0.22338396 -0.06672442 5.1273511e-42
0.76708382 -0.22325313 -0.066371381 5.1273511e-42
0.76765603 -0.22219336 -0.066719502 5.1273511e-42
0.77127028 -0.22226328 -0.066763848 1.1560712e-42
0.76735353 -0.22128592 -0.066550225 5.1273511e-42
0.7716527 -0.22110033 -0.06698975 1.1560712e-42
0.7670511 -0.22037849 -0.066380948 4.7672174e-42
0.76674867 -0.21947107 -0.066211671 5.1273511e-42
0.77262878 -0.21992007 -0.066121638 1.5162049e-42
0.76731813 -0.2184031 -0.066558272 5.1273511e-42
0.77301121 -0.21875709 -0.066347569 1.5162049e-42
0.76788658 -0.21733183 -0.066904277 5.1273511e-42
0.77339363 -0.21759415 -0.066573501 1.5162049e-42
0.77377617 -0.2164312 -0.066799432 8.6880505e-44
0.76784563 -0.21443263 -0.066909224 5.4874848e-42
0.76827216 -0.21445432 -0.06603092 5.4874848e-42
0.77513456 -0.21408796 -0.066157252 1.1560712e-42
0.76754159 -0.21352029 -0.066739053 5.1399628e-42
0.77551699 -0.21292502 -0.066383183 1.5162049e-42
0.77589953 -0.21176207 -0.066609114 4.4701421e-43
0.77797437 -0.21009225 -0.06635192 1.1658803e-42
0.77835739 -0.20892769 -0.06657818 1.1658803e-42
0.78285599 -0.20739973 -0.066215396 1.1658803e-42
0.7852807 -0.2075431 -0.066106379 1.8763386e-42
0.78566635 -0.20637035 -0.066334218 2.5980074e-42
0.78677475 -0.20585948 -0.066944689 2.9581411e-42
0.7909224 -0.20545137 -0.066331893 2.9581411e-42
0.79336596 -0.20556831 -0.066209465 2.2504853e-42
0.79448211 -0.20504096 -0.066818535 8.9683102e-44
0.78776038 -0.20466754 -0.066067994 3.6770072e-42
0.7812922 -0.24471369 -0.065499157 1.4562947e-38
0.78098816 -0.24380134 -0.065328985 1.4562947e-38
0.7777456 -0.24216869 -0.065716475 1.4838808e-38
0.7793656 -0.24298333 -0.065524012 1.4655495e-38
0.77634037 -0.24136817 -0.065469638 1.4746611e-38
0.77582586 -0.24044995 -0.065737158 1.548418e-38
0.77463508 -0.23966518 -0.065052837 1.4843491e-38
0.77141309 -0.23806253 -0.065423787 2.3114544e-39
0.77390975 -0.23873784 -0.065755874 9.4028752e-39
0.77111232 -0.23716001 -0.065255433 2.6022112e-42
0.76950574 -0.23636536 -0.065437406 6.925217e-42
0.76920551 -0.23546448 -0.065269321 8.0056181e-42
0.76890528 -0.23456362 -0.065101266 7.2783442e-42
0.7678836 -0.23274042 -0.065632433 6.1993444e-42
0.77130187 -0.23249555 -0.065235406 5.3401593e-39
0.76846367 -0.23170199 -0.065982968 5.4776757e-42
0.77168596 -0.23132771 -0.065462291 1.1020302e-39
0.76816285 -0.23079947 -0.065814584 5.1217459e-42
0.77207005 -0.23015982 -0.065689176 1.1560712e-42
0.76786208 -0.22989695 -0.065646231 5.840612e-42
0.76741087 -0.22854316 -0.065393686 5.4874848e-42
0.76886261 -0.22887342 -0.065125108 5.4874848e-42
0.76695967 -0.22718939 -0.065141141 5.4874848e-42
0.77104068 -0.22759581 -0.065149367 2.9581411e-42
0.7714237 -0.22643122 -0.065375626 2.5980074e-42
0.77180672 -0.22526664 -0.065601856 2.2378736e-42
0.7669332 -0.22433114 -0.065152198 3.7050331e-42
0.77218974 -0.22410205 -0.065828115 2.2378736e-42
0.76750726 -0.22327468 -0.065499365 5.1273511e-42
0.76808023 -0.22221494 -0.065845907 4.7672174e-42
0.77186382 -0.22224593 -0.065669775 1.5162049e-42
0.7677778 -0.22130752 -0.06567663 4.7672174e-42
0.77224636 -0.22108302 -0.065895706 1.5162049e-42
0.76747537 -0.22040007 -0.065507323 5.1273511e-42
0.76717287 -0.21949264 -0.065338045 4.7616122e-42
0.77322233 -0.21990275 -0.065027595 1.1560712e-42
0.76687044 -0.21858521 -0.065168768 5.1217459e-42
0.77360475 -0.21873978 -0.065253526 1.1560712e-42
0.77398729 -0.2175768 -0.065479457 1.1560712e-42
0.76800877 -0.21644278 -0.065857619 5.1273511e-42
0.77436972 -0.21641386 -0.065705389 8.6880505e-44
0.7677052 -0.21553206 -0.065687746 5.4874848e-42
0.77475214 -0.21525091 -0.06593132 8.5479206e-44
0.76869863 -0.21447602 -0.065152586 4.4238993e-42
0.76796806 -0.21354198 -0.065860718 5.8462172e-42
0.76766396 -0.21262962 -0.065690517 5.8462172e-42
0.77649307 -0.21174473 -0.065515071 1.1658803e-42
0.7768755 -0.21058178 -0.065740973 1.1658803e-42
0.77895176 -0.20891032 -0.065482587 1.526014e-42
0.77933478 -0.20774573 -0.065708846 7.9033233e-43
0.78175163 -0.20790076 -0.065605313 2.2294659e-42
0.78587925 -0.20752564 -0.065003097 2.2378736e-42
0.78698802 -0.20701638 -0.06561169 2.9581411e-42
0.78737414 -0.20584196 -0.065839857 2.9581411e-42
0.79152429 -0.20543379 -0.065222442 2.2476827e-42
0.79435837 -0.20436805 -0.065326691 2.7695585e-39
0.79547608 -0.20383906 -0.065934509 6.0796189e-39
0.77979136 -0.24300498 -0.064647287 1.4655495e-38
0.77817053 -0.24219032 -0.0648413 1.4655495e-38
0.77697664 -0.24140054 -0.064159244 1.4746962e-38
0.77625 -0.24047154 -0.064863563 1.5576726e-38
0.77505851 -0.23968671 -0.064180821 1.4935326e-38
0.77183497 -0.238084 -0.0645549 4.3368478e-39
0.77344549 -0.23888367 -0.064369142 1.0418459e-38
0.7715342 -0.23718148 -0.064386547 1.1336505e-42
0.76992691 -0.23638679 -0.064570099 3.6868163e-42
0.76962662 -0.23548591 -0.064402044 4.6574537e-40
0.76932639 -0.23458505 -0.064233989 7.2783442e-42
0.76860499 -0.23366272 -0.064933211 7.6384779e-42
0.76902616 -0.23368415 -0.064065903 6.5594781e-42
0.76830471 -0.23276184 -0.064765155 7.2783442e-42
0.76950872 -0.23225415 -0.06424436 6.1731415e-39
0.76800448 -0.23186097 -0.0645971 6.5594781e-42
0.76858473 -0.23082092 -0.064945728 6.1993444e-42
0.76900661 -0.2308424 -0.064076871 6.1993444e-42
0.76828396 -0.22991842 -0.064777374 6.1993444e-42
0.76928532 -0.22889492 -0.064254671 4.7798291e-42
0.76738155 -0.22721085 -0.064272255 5.4874848e-42
0.76898396 -0.22799078 -0.06408599 4.7798291e-42
0.77163517 -0.22757846 -0.064053774 2.2476827e-42
0.76665884 -0.22628686 -0.064972788 5.4874848e-42
0.76708072 -0.22630832 -0.064103901 5.4874848e-42
0.76635802 -0.22538434 -0.064804405 4.0651668e-42
0.76765722 -0.2252568 -0.064450413 4.4182941e-42
0.76895785 -0.22512934 -0.064093262 5.1273511e-42
0.76823258 -0.22420201 -0.064796299 4.7798291e-42
0.77169251 -0.22455454 -0.064123869 1.526014e-42
0.76793063 -0.22329623 -0.06462732 5.4874848e-42
0.77207494 -0.22339159 -0.0643498 1.8763386e-42
0.76762879 -0.22239041 -0.06445834 5.4874848e-42
0.77245748 -0.22222862 -0.064575732 1.5162049e-42
0.76820195 -0.22132909 -0.064803034 5.4874848e-42
0.7728399 -0.2210657 -0.064801663 1.1560712e-42
0.76789951 -0.22042166 -0.064633757 4.7672174e-42
0.76759708 -0.21951422 -0.06446445 5.1273511e-42
0.76729465 -0.2186068 -0.064295173 5.1273511e-42
0.76656801 -0.21767777 -0.064999491 4.7672174e-42
0.76786506 -0.21753727 -0.064638317 5.1273511e-42
0.76843452 -0.21646443 -0.064980894 4.7672174e-42
0.76813096 -0.21555373 -0.064810991 3.7022305e-42
0.76839459 -0.21356368 -0.064982384 4.7798291e-42
0.77391815 -0.21387035 -0.064070344 1.1560712e-42
0.76809049 -0.21265133 -0.064812183 5.1399628e-42
0.7742995 -0.21271068 -0.06429565 1.5162049e-42
0.77670419 -0.21289036 -0.064195067 1.5162049e-42
0.76778638 -0.21173897 -0.064641982 5.4874848e-42
0.77468097 -0.21155101 -0.064520955 1.5162049e-42
0.77708662 -0.21172738 -0.064420998 1.1658803e-42
0.77746904 -0.21056443 -0.06464693 1.1658803e-42
0.77785158 -0.20940149 -0.064872861 1.1658803e-42
0.77954614 -0.20889297 -0.064386994 1.526014e-42
0.77992916 -0.20772839 -0.064613253 1.150466e-42
0.78404975 -0.20736486 -0.064014971 1.8763386e-42
0.78273177 -0.20671549 -0.064733535 1.5162049e-42
0.7875874 -0.20699888 -0.064506859 2.2378736e-42
0.78797364 -0.20582446 -0.064734995 2.2378736e-42
0.78835988 -0.20465004 -0.064963162 2.9581411e-42
0.79251409 -0.20423689 -0.064342082 8.5479206e-44
0.79496205 -0.20435044 -0.06421414 6.4559446e-39
0.79608047 -0.20382142 -0.064820409 8.5742356e-39
0.77932346 -0.24314262 -0.063260555 1.4655495e-38
0.78073341 -0.24394819 -0.063502029 1.4655139e-38
0.77770329 -0.24232955 -0.063454926 1.4655495e-38
0.77740085 -0.24142212 -0.063285649 1.4563294e-38
0.77578384 -0.24061404 -0.063477784 1.5392332e-38
0.77225685 -0.23810546 -0.063686043 3.7872908e-39
0.77386808 -0.23890518 -0.063498706 1.106311e-38
0.77106941 -0.23733054 -0.06300357 1.8679309e-42
0.77034801 -0.23640822 -0.063702792 6.5552742e-42
0.77004778 -0.23550734 -0.063534766 9.0762102e-42
0.7697475 -0.23460647 -0.063366681 9.7320178e-41
0.76944721 -0.23370558 -0.063198626 4.7658161e-42
0.76872587 -0.23278327 -0.063897848 6.5594781e-42
0.77010322 -0.2322368 -0.063148767 4.9774724e-39
0.76842558 -0.23188239 -0.063729793 6.5594781e-42
0.77048612 -0.23107225 -0.063375026 1.5148036e-42
0.76942855 -0.23086387 -0.063208014 5.8462172e-42
0.76870584 -0.22993988 -0.063908488 5.8378094e-42
0.76912773 -0.22996134 -0.063039631 6.5650833e-42
0.77086914 -0.22990763 -0.063601285 7.286752e-44
0.76680344 -0.22825742 -0.063924849 5.4874848e-42
0.76940656 -0.22801228 -0.063215554 5.4874848e-42
0.77125216 -0.22874308 -0.063827515 1.887549e-42
0.7686826 -0.2270866 -0.063917309 5.1273511e-42
0.76910526 -0.22710812 -0.063046873 5.1273511e-42
0.76838124 -0.22618246 -0.063748658 5.4874848e-42
0.76938128 -0.22515088 -0.063221246 5.4874848e-42
0.77131009 -0.22571748 -0.063897938 1.1658803e-42
0.76865602 -0.22422355 -0.063924283 5.8490198e-42
0.76907945 -0.2242451 -0.063052267 5.8490198e-42
0.77228606 -0.22453719 -0.063029796 2.2378736e-42
0.76835406 -0.22331776 -0.063755304 5.4874848e-42
0.7726686 -0.22337425 -0.063255727 1.1658803e-42
0.76805222 -0.22241196 -0.063586324 5.4874848e-42
0.77305102 -0.2222113 -0.063481659 1.1658803e-42
0.76862615 -0.22135067 -0.063929439 5.1273511e-42
0.77343345 -0.22104836 -0.06370759 1.1560712e-42
0.76832372 -0.22044323 -0.063760132 4.7672174e-42
0.76802123 -0.2195358 -0.063590854 5.1385615e-42
0.77381587 -0.21988541 -0.063933522 1.1560712e-42
0.76771879 -0.21862838 -0.063421577 4.7784278e-42
0.76741636 -0.21772093 -0.0632523 3.3420968e-42
0.7727741 -0.21734938 -0.063394457 1.5162049e-42
0.76798701 -0.21664982 -0.063593566 3.7022305e-42
0.77315545 -0.21618968 -0.063619763 1.1560712e-42
0.76768404 -0.21574074 -0.063423961 4.4182941e-42
0.7735368 -0.21503001 -0.063845068 1.1560712e-42
0.76825315 -0.21466468 -0.063764334 4.7798291e-42
0.76794958 -0.21375397 -0.063594431 4.7798291e-42
0.76764607 -0.21284327 -0.063424557 5.1399628e-42
0.7748915 -0.21269339 -0.063204676 1.5162049e-42
0.77768016 -0.21171007 -0.063326955 1.1658803e-42
0.7780627 -0.21054712 -0.063552886 1.1658803e-42
0.77844512 -0.20938414 -0.063778818 1.1658803e-42
0.78052354 -0.20771104 -0.06351763 1.5162049e-42
0.78294373 -0.20786595 -0.063407958 1.8763386e-42
0.7864778 -0.20750815 -0.063899785 2.2378736e-42
0.78090656 -0.20654643 -0.063743889 1.8763386e-42
0.78746212 -0.2063179 -0.063024312 2.5980074e-42
0.78857303 -0.20580697 -0.063630164 2.5980074e-42
0.79272819 -0.20539865 -0.06300351 8.1275311e-44
0.78895926 -0.20463252 -0.06385833 1.887549e-42
0.79139912 -0.20475769 -0.063735843 4.4561291e-43
0.79311609 -0.20421931 -0.06323263 8.5479206e-44
0.79556561 -0.20433283 -0.06310159 7.5615831e-39
0.79668498 -0.20380378 -0.063706338 1.0506731e-38
0.77812749 -0.24235114 -0.062581331 1.4655495e-38
0.77620727 -0.24063559 -0.062605768 1.5301218e-38
0.7734015 -0.23905092 -0.062116683 1.1707393e-38
0.77459216 -0.23983084 -0.062796921 1.5026436e-38
0.7717908 -0.23825285 -0.062304348 6.0907115e-39
0.76988304 -0.23655885 -0.062321723 4.7616122e-42
0.76958334 -0.23565963 -0.062153965 9.0832166e-42
0.77172589 -0.23479646 -0.062584281 1.1524448e-38
0.77210999 -0.23362863 -0.062811166 1.8442657e-39
0.76826382 -0.23294051 -0.062516421 6.1993444e-42
0.76884675 -0.23190382 -0.062862515 6.1993444e-42
0.77108061 -0.2310549 -0.062279433 5.3249342e-44
0.76882696 -0.22905883 -0.062871277 5.4874848e-42
0.76924884 -0.22908029 -0.062002391 5.4874848e-42
0.77146351 -0.22989029 -0.062505692 1.1420582e-42
0.76982927 -0.22803378 -0.062345088 5.4874848e-42
0.77184653 -0.22872573 -0.062731922 2.9637463e-42
0.76952791 -0.22712961 -0.062176436 5.4874848e-42
0.77222955 -0.22756112 -0.062958181 1.8847464e-42
0.76880389 -0.22620395 -0.062878191 5.4874848e-42
0.76922655 -0.22622547 -0.062007755 5.1273511e-42
0.76980472 -0.22517243 -0.06234923 5.1273511e-42
0.77190363 -0.22570017 -0.062803864 1.5162049e-42
0.76950288 -0.22426665 -0.062180251 5.8490198e-42
0.76877749 -0.2233393 -0.062883288 5.4972939e-42
0.76920092 -0.22336084 -0.062011272 4.4182941e-42
0.77326214 -0.2233569 -0.062161684 1.887549e-42
0.76847565 -0.22243351 -0.062714309 5.4972939e-42
0.76817369 -0.22152771 -0.062545329 4.7672174e-42
0.76947451 -0.22139384 -0.062182218 4.7672174e-42
0.76874793 -0.22046483 -0.062886536 5.8490198e-42
0.76917207 -0.2204864 -0.062012941 5.1273511e-42
0.76844549 -0.21955739 -0.062717259 3.7022305e-42
0.76814306 -0.21864995 -0.062547982 4.0623642e-42
0.77298462 -0.21849176 -0.062078208 1.1560712e-42
0.76784056 -0.21774252 -0.062378705 3.7022305e-42
0.77336597 -0.21733209 -0.062303483 1.1560712e-42
0.76753813 -0.21683508 -0.062209427 4.0623642e-42
0.77374732 -0.2161724 -0.062528789 1.1560712e-42
0.7672357 -0.21592765 -0.06204012 4.7798291e-42
0.77412868 -0.21501273 -0.062754095 1.1560712e-42
0.7686789 -0.21468633 -0.062887579 4.7798291e-42
0.7691046 -0.214708 -0.062010825 3.7022305e-42
0.76837534 -0.21377563 -0.062717706 5.8462172e-42
0.77451003 -0.21385306 -0.06297937 1.5162049e-42
0.76807177 -0.21286492 -0.062547803 5.8462172e-42
0.77548337 -0.21267611 -0.062113702 1.5162049e-42
0.77586472 -0.21151644 -0.062339008 1.5162049e-42
0.77865624 -0.2105298 -0.062458813 1.1658803e-42
0.77903867 -0.20936683 -0.062684745 1.8763386e-42
0.77942109 -0.20820388 -0.062910676 1.8763386e-42
0.78111804 -0.2076937 -0.062422037 1.8763386e-42
0.78707647 -0.20749068 -0.062796503 2.5980074e-42
0.78392386 -0.20668069 -0.06253618 2.5980074e-42
0.78917241 -0.20578948 -0.062525332 2.5980074e-42
0.78955865 -0.20461506 -0.062753469 1.887549e-42
0.79371798 -0.20420176 -0.06212315 9.5288296e-44
0.77885413 -0.24328016 -0.061877012 1.4838808e-38
0.77927828 -0.24330173 -0.061003417 1.4655495e-38
0.7785517 -0.24237272 -0.061707735 1.4838808e-38
0.7769326 -0.24156295 -0.061902732 1.4655495e-38
0.77735603 -0.24158448 -0.061030686 1.4655495e-38
0.77663064 -0.24065714 -0.061733752 1.5116115e-38
0.77522612 -0.2398631 -0.061491266 1.50268e-38
0.77221191 -0.23827426 -0.061437041 6.9168779e-39
0.77060318 -0.23747949 -0.061623752 2.5573697e-42
0.76839864 -0.23489286 -0.061473012 2.813513e-40
0.77232194 -0.23477906 -0.061485618 1.1707718e-38
0.76780027 -0.23309764 -0.061138123 5.8462172e-42
0.76809943 -0.23399526 -0.061305553 4.7658161e-42
0.76838452 -0.23206264 -0.061482936 5.8462172e-42
0.76896763 -0.23102435 -0.061827153 5.8462172e-42
0.77167499 -0.23103756 -0.06118384 6.8663625e-44
0.76866734 -0.23012348 -0.061659098 5.4846822e-42
0.77205801 -0.22987294 -0.061410099 2.962345e-42
0.77173233 -0.22800875 -0.061257958 2.9637463e-42
0.77211475 -0.22684577 -0.06148389 2.6036125e-42
0.77249718 -0.22568285 -0.061709821 1.1658803e-42
0.76992631 -0.2242882 -0.061308235 5.1273511e-42
0.77287972 -0.22451988 -0.061935753 1.1658803e-42
0.76962435 -0.22338238 -0.061139256 3.7022305e-42
0.76889908 -0.22245505 -0.061842293 4.7798291e-42
0.77020121 -0.22232285 -0.061477929 4.4238993e-42
0.76989871 -0.22141542 -0.061308622 5.1273511e-42
0.76959628 -0.22050798 -0.061139345 5.1273511e-42
0.7722218 -0.22081113 -0.061627597 1.1658803e-42
0.76886964 -0.21957898 -0.061843663 3.7022305e-42
0.77260327 -0.21965146 -0.061852902 1.5162049e-42
0.7685672 -0.21867153 -0.061674386 3.7022305e-42
0.76826477 -0.21776411 -0.061505109 3.7022305e-42
0.76796234 -0.21685666 -0.061335832 3.7022305e-42
0.76853395 -0.21578398 -0.061673611 3.3420968e-42
0.7736249 -0.21547025 -0.061058104 1.1560712e-42
0.7695303 -0.21472967 -0.06113407 5.1273511e-42
0.77400577 -0.21431226 -0.061283082 1.1560712e-42
0.76880109 -0.21379729 -0.061840922 5.4874848e-42
0.77510202 -0.21383578 -0.061888427 1.5162049e-42
0.76849753 -0.21288657 -0.061671048 5.1273511e-42
0.77607524 -0.21265882 -0.061022729 1.5162049e-42
0.77645659 -0.21149915 -0.061248034 1.5162049e-42
0.77683794 -0.21033949 -0.06147331 1.1658803e-42
0.77963221 -0.20934951 -0.061590701 1.8763386e-42
0.78001475 -0.20818657 -0.061816633 1.8763386e-42
0.78209543 -0.20651174 -0.061552703 2.2378736e-42
0.78452003 -0.20666331 -0.061437488 2.5980074e-42
0.78806067 -0.20630044 -0.06192103 2.9581411e-42
0.78977191 -0.20577198 -0.06142047 3.6770072e-42
0.79221404 -0.20590031 -0.061291218 3.6868163e-42
0.79015815 -0.20459753 -0.061648637 3.6840137e-42
0.79260135 -0.20472258 -0.06152001 7.9874012e-44
0.79431987 -0.20418417 -0.061013699 8.2676609e-44
0.79470778 -0.20300484 -0.061242789 9.3107651e-39
0.7780813 -0.24251182 -0.060327649 1.4655495e-38
0.77777946 -0.24160603 -0.06015867 1.4747691e-38
0.77705407 -0.24067867 -0.060861707 1.5116115e-38
0.7729333 -0.23919657 -0.060737818 1.2629357e-38
0.77424526 -0.23909386 -0.060378939 1.2630073e-38
0.77586013 -0.23989536 -0.060185611 1.4934243e-38
0.7717436 -0.2384215 -0.060060084 7.196336e-39
0.77013528 -0.23762839 -0.060247093 7.6510896e-43
0.76941657 -0.23670942 -0.060943782 4.7616122e-42
0.76793242 -0.23504665 -0.060097277 8.7146751e-42
0.76911736 -0.23581181 -0.060776323 8.3615479e-42
0.76821989 -0.233119 -0.060273975 6.5650833e-42
0.76792073 -0.23222139 -0.060106546 6.5650833e-42
0.77129197 -0.23220211 -0.060957581 0
0.76850516 -0.23118478 -0.060449481 5.8462172e-42
0.7682054 -0.23028556 -0.060281724 5.4846822e-42
0.76878822 -0.22924402 -0.060623735 5.4874848e-42
0.76848793 -0.22834313 -0.06045568 5.4874848e-42
0.76906908 -0.22729671 -0.060796797 5.4874848e-42
0.77232587 -0.2279914 -0.060163885 2.9637463e-42
0.76876831 -0.22639418 -0.060628444 5.1273511e-42
0.77270842 -0.22682846 -0.060389847 2.6036125e-42
0.7695592 -0.22535357 -0.060533419 4.7672174e-42
0.77034974 -0.22430973 -0.060436219 4.0483513e-42
0.77004778 -0.22340393 -0.06026724 4.7672174e-42
0.77205098 -0.22311318 -0.060086042 1.5162049e-42
0.77243233 -0.22195351 -0.060311347 1.1658803e-42
0.77002048 -0.22052956 -0.06026575 5.1273511e-42
0.77210164 -0.22010243 -0.060158193 1.1658803e-42
0.76950598 -0.21961135 -0.06053327 4.4154915e-42
0.77319515 -0.21963418 -0.060761929 1.5162049e-42
0.76899141 -0.21869311 -0.060800791 4.0623642e-42
0.7735765 -0.21847448 -0.060987234 1.1560712e-42
0.76868892 -0.21778569 -0.060631514 3.7022305e-42
0.76838648 -0.21687824 -0.060462207 3.7022305e-42
0.77324414 -0.21662831 -0.060833126 4.3720512e-43
0.76895893 -0.21580561 -0.060798436 5.4874848e-42
0.77025956 -0.21566203 -0.060427219 5.1273511e-42
0.77083111 -0.21458451 -0.060760945 5.4874848e-42
0.77459681 -0.21429497 -0.060193658 1.1560712e-42
0.76820147 -0.21353292 -0.060374469 4.7798291e-42
0.76965249 -0.2138406 -0.060087442 4.7798291e-42
0.77497768 -0.21313694 -0.060418636 1.1560712e-42
0.77704859 -0.21148187 -0.060157061 1.5162049e-42
0.77742994 -0.2103222 -0.060382336 1.5162049e-42
0.77781129 -0.2091625 -0.060607642 1.5162049e-42
0.78022587 -0.20933217 -0.060496658 1.8763386e-42
0.7806083 -0.20816922 -0.06072256 1.8763386e-42
0.78099072 -0.20700628 -0.060948521 1.8763386e-42
0.78268981 -0.20649439 -0.06045711 2.5980074e-42
0.78511608 -0.20664591 -0.060338825 1.887549e-42
0.78622508 -0.20614308 -0.060941517 1.887549e-42
0.78865933 -0.20628297 -0.060817719 2.9581411e-42
0.7903713 -0.20575446 -0.060315639 3.6770072e-42
0.79281521 -0.20588273 -0.060183287 2.9707527e-42
0.79393208 -0.20536351 -0.060784578 7.8472714e-44
0.79849827 -0.20375085 -0.060364068 1.3177141e-38
0.79530966 -0.20298728 -0.060133338 1.0967394e-38
0.79569757 -0.20180798 -0.060362458 1.2717955e-38
0.78073156 -0.24515978 -0.05959478 1.4655849e-38
0.78042912 -0.24425234 -0.059425503 1.4655849e-38
0.77880669 -0.24343915 -0.059624612 1.4655495e-38
0.77658415 -0.24082102 -0.059483826 1.5116115e-38
0.77466714 -0.23911533 -0.059510082 1.3459473e-38
0.77216399 -0.23844288 -0.059194356 8.8540427e-39
0.7705549 -0.23764972 -0.059382945 2.5559684e-42
0.76894855 -0.23685992 -0.059569001 4.0441474e-42
0.76850063 -0.23551595 -0.059318289 8.3615479e-42
0.7676338 -0.23415068 -0.059930146 7.9944077e-42
0.7680527 -0.234172 -0.059067577 7.9944077e-42
0.77150345 -0.23334938 -0.059635729 8.665313e-39
0.77188635 -0.23218477 -0.059861988 0
0.76804113 -0.23134513 -0.059074938 5.8462172e-42
0.7686258 -0.23030692 -0.059415996 5.4846822e-42
0.76993072 -0.23018776 -0.059057236 5.8462172e-42
0.77156103 -0.23031729 -0.059712023 6.4459729e-44
0.76920938 -0.22926545 -0.059756458 5.4874848e-42
0.77194345 -0.22915435 -0.059937954 3.671402e-42
0.7689091 -0.22836456 -0.059588403 5.4874848e-42
0.77021372 -0.22824216 -0.059227437 5.4874848e-42
0.76860881 -0.22746368 -0.059420317 4.4182941e-42
0.76919019 -0.22641565 -0.059759557 4.7798291e-42
0.77019322 -0.22538581 -0.059227765 5.1273511e-42
0.76989186 -0.22448167 -0.059059083 5.1273511e-42
0.77166963 -0.22427285 -0.059860766 1.1560712e-42
0.7696557 -0.22160311 -0.059493273 4.0483513e-42
0.77044463 -0.22055115 -0.059392154 5.4874848e-42
0.77269268 -0.22008517 -0.059068769 1.1560712e-42
0.7701422 -0.21964371 -0.059222877 5.4874848e-42
0.76962769 -0.2187255 -0.059490398 4.7672174e-42
0.77307343 -0.21892715 -0.059293747 1.1560712e-42
0.76911318 -0.21780726 -0.059757918 3.3448994e-42
0.77345431 -0.21776909 -0.059518725 1.1560712e-42
0.76881069 -0.21689983 -0.059588611 3.7050331e-42
0.7701118 -0.21675792 -0.059217662 4.4182941e-42
0.77383518 -0.21661106 -0.059743702 7.9033233e-43
0.77068532 -0.2156837 -0.059550464 4.7672174e-42
0.77421606 -0.21545303 -0.05996868 7.9033233e-43
0.77147079 -0.21461707 -0.059443444 5.1273511e-42
0.77095354 -0.21369387 -0.05971241 4.7798291e-42
0.77556872 -0.21311969 -0.059329212 1.1560712e-42
0.77064943 -0.21278152 -0.059542209 4.7798291e-42
0.77034533 -0.21186918 -0.059372008 5.8462172e-42
0.7759496 -0.21196163 -0.059554189 1.5162049e-42
0.77221656 -0.21063197 -0.05932197 5.1399628e-42
0.77802181 -0.21030492 -0.059291363 4.4701421e-43
0.77191138 -0.20971633 -0.059151173 6.5650833e-42
0.77840316 -0.20914525 -0.059516668 1.526014e-42
0.78081942 -0.20931485 -0.059402585 1.8763386e-42
0.78120184 -0.20815191 -0.059628516 1.8763386e-42
0.78158426 -0.20698896 -0.059854448 1.8763386e-42
0.78328419 -0.20647702 -0.059361517 1.8763386e-42
0.78682208 -0.20612568 -0.059841305 2.6078164e-42
0.78925788 -0.20626551 -0.059714437 2.9581411e-42
0.7909708 -0.20573699 -0.059210807 3.6770072e-42
0.79341626 -0.2058652 -0.059075356 5.1273511e-42
0.79453397 -0.20534593 -0.059675127 8.5479206e-44
0.79492188 -0.20416659 -0.059904218 1.8400268e-39
0.79737639 -0.20427996 -0.059763938 1.2714791e-38
0.78025728 -0.24529383 -0.058218509 1.4655849e-38
0.77995539 -0.24438804 -0.05804953 1.4655849e-38
0.77923012 -0.24346069 -0.058752567 1.4655495e-38
0.77760947 -0.24265084 -0.058950722 1.4747691e-38
0.77803218 -0.24267234 -0.058080286 1.4655495e-38
0.77730811 -0.24174666 -0.058782041 1.4747338e-38
0.77538985 -0.2400393 -0.058809578 1.4934243e-38
0.7770068 -0.24084252 -0.05861339 1.511612e-38
0.77508903 -0.23913679 -0.058641225 1.37357e-38
0.77258432 -0.23846427 -0.058328658 8.5796236e-39
0.77097452 -0.23767108 -0.058518797 2.9020891e-42
0.76936734 -0.23688123 -0.058706433 3.3196761e-42
0.7687701 -0.23508927 -0.05837217 7.9972103e-42
0.76906872 -0.23598525 -0.058539301 8.3615479e-42
0.76847148 -0.23419331 -0.058205009 7.2783442e-42
0.76775408 -0.23327604 -0.058900446 5.8462172e-42
0.76745546 -0.23238006 -0.058733284 5.8462172e-42
0.77138972 -0.23262584 -0.058166116 7.7433161e-39
0.76934588 -0.23122755 -0.058718055 5.8462172e-42
0.77177215 -0.23146296 -0.058392048 0
0.77215457 -0.23029998 -0.058617979 7.4268819e-44
0.76963043 -0.22928688 -0.05888918 5.4874848e-42
0.7700516 -0.22930831 -0.058021873 5.1217459e-42
0.77253699 -0.229137 -0.058843911 2.6022112e-42
0.76902997 -0.22748511 -0.05855304 5.4874848e-42
0.76961207 -0.22643712 -0.0588907 5.1273511e-42
0.77003396 -0.22645858 -0.058021814 5.1273511e-42
0.7714988 -0.22657496 -0.058319181 2.5980074e-42
0.77061582 -0.22540733 -0.058357298 5.1273511e-42
0.77188015 -0.22541523 -0.058544487 1.5162049e-42
0.77119654 -0.22435281 -0.058692157 4.7672174e-42
0.7722615 -0.22425556 -0.058769792 1.1560712e-42
0.7695905 -0.2235775 -0.058890402 4.7672174e-42
0.77001315 -0.223599 -0.058019966 4.7672174e-42
0.77264285 -0.22309589 -0.058995068 1.5162049e-42
0.76710749 -0.22295928 -0.058580041 4.7672174e-42
0.77029085 -0.22163543 -0.05818522 4.7672174e-42
0.77231181 -0.2212432 -0.058843791 1.1560712e-42
0.7708689 -0.22057272 -0.058518559 5.4874848e-42
0.7705664 -0.21966529 -0.058349282 5.4874848e-42
0.77026397 -0.21875787 -0.058180004 5.4874848e-42
0.77366459 -0.21890989 -0.058204323 1.5162049e-42
0.7697494 -0.21783963 -0.058447495 4.7728226e-42
0.77404535 -0.21775183 -0.058429301 1.1560712e-42
0.77053678 -0.21677954 -0.058342516 5.1273511e-42
0.77111101 -0.21570535 -0.05867371 4.7672174e-42
0.77371085 -0.21590734 -0.058277965 1.1560712e-42
0.77211058 -0.21464962 -0.058125943 5.4874848e-42
0.77409112 -0.21475095 -0.058502644 1.1560712e-42
0.77137995 -0.21371557 -0.058834076 4.4182941e-42
0.7744714 -0.21359456 -0.058727294 1.1560712e-42
0.7710759 -0.21280321 -0.058663875 4.4182941e-42
0.77077186 -0.21189088 -0.058493674 4.4182941e-42
0.77654064 -0.2119444 -0.058464766 1.1560712e-42
0.77264464 -0.21065374 -0.058440477 5.8490198e-42
0.77692151 -0.21078634 -0.058689743 1.1560712e-42
0.77861369 -0.21028763 -0.058200389 1.5162049e-42
0.77233946 -0.20973811 -0.05826968 5.4958926e-42
0.77899504 -0.20912796 -0.058425695 1.8763386e-42
0.78141296 -0.20929754 -0.058308542 1.8763386e-42
0.77203429 -0.20882249 -0.058098882 7.2951598e-42
0.78179538 -0.20813459 -0.058534473 1.8763386e-42
0.78217793 -0.20697165 -0.058760405 1.8763386e-42
0.78387856 -0.20645967 -0.058265924 1.1658803e-42
0.78741896 -0.20610824 -0.058741093 2.2476827e-42
0.78985643 -0.20624802 -0.058611125 2.9581411e-42
0.78426158 -0.20529509 -0.058492154 1.887549e-42
0.79157019 -0.20571947 -0.058105946 4.3958733e-42
0.79513597 -0.20532835 -0.058565646 7.9874012e-44
0.79552376 -0.20414901 -0.058794767 4.6019356e-39
0.79690135 -0.20177281 -0.058143526 1.2992744e-38
0.78068072 -0.24531537 -0.057346493 1.4655849e-38
0.77875614 -0.243598 -0.057378501 1.4655495e-38
0.77773082 -0.24176817 -0.057911605 1.4746985e-38
0.77581179 -0.24006078 -0.057940692 1.5026439e-38
0.77623367 -0.24008223 -0.057071835 1.4840973e-38
0.77742946 -0.24086402 -0.057742923 1.5023572e-38
0.77461779 -0.23928228 -0.057268649 1.4104843e-38
0.77300465 -0.23848566 -0.057462931 9.8671128e-39
0.77139413 -0.23769243 -0.057654679 2.5489619e-42
0.76963693 -0.23645455 -0.057760313 5.8392107e-42
0.76918894 -0.23511058 -0.057509601 4.6609849e-40
0.76889032 -0.23421462 -0.05734244 9.7317376e-41
0.7672866 -0.23343301 -0.057529986 6.5594781e-42
0.76698852 -0.23253869 -0.057363153 6.1993444e-42
0.76976621 -0.23124894 -0.057852328 5.4874848e-42
0.76946652 -0.2303497 -0.057684571 5.8490198e-42
0.77047276 -0.22932974 -0.057154596 6.202147e-42
0.76975131 -0.22840741 -0.057853818 4.7616122e-42
0.76945108 -0.22750652 -0.057685763 5.1273511e-42
0.77170932 -0.22771734 -0.057002932 2.9581411e-42
0.77073717 -0.22452468 -0.057318181 5.4874848e-42
0.77176034 -0.22470009 -0.057079434 2.2378736e-42
0.77043581 -0.2236205 -0.057149529 5.4874848e-42
0.77214122 -0.22354203 -0.057304412 2.2378736e-42
0.76752865 -0.22298071 -0.057712734 4.7672174e-42
0.76971179 -0.22269484 -0.057851285 4.7672174e-42
0.77252209 -0.22238398 -0.05752939 1.8763386e-42
0.77290285 -0.22122595 -0.057754368 1.5162049e-42
0.77041239 -0.22075117 -0.057144225 5.4874848e-42
0.77328372 -0.22006792 -0.057979345 1.5162049e-42
0.77099061 -0.21968688 -0.057475656 4.4182941e-42
0.77068818 -0.21877944 -0.057306379 4.4182941e-42
0.77038574 -0.21787201 -0.057137102 5.4874848e-42
0.77153671 -0.215727 -0.057796955 5.1273511e-42
0.77430105 -0.21589011 -0.05719009 1.1560712e-42
0.77253705 -0.21467131 -0.057247609 5.4874848e-42
0.77468133 -0.21473372 -0.05741474 1.1560712e-42
0.77180648 -0.21373726 -0.057955742 5.4874848e-42
0.77223301 -0.21375898 -0.057077438 5.4874848e-42
0.77506161 -0.21357733 -0.05763939 1.1560712e-42
0.77150238 -0.21282491 -0.057785541 4.7672174e-42
0.77544188 -0.21242094 -0.05786404 1.1560712e-42
0.77119833 -0.21191257 -0.05761537 5.1273511e-42
0.77641249 -0.2112473 -0.057000816 1.5162049e-42
0.77751255 -0.21076912 -0.05760029 1.5162049e-42
0.77958703 -0.20911068 -0.057334721 1.1560712e-42
0.78238904 -0.20811725 -0.0574404 1.8763386e-42
0.78277147 -0.2069543 -0.057666332 1.1658803e-42
0.78447306 -0.2064423 -0.057170331 1.1658803e-42
0.78801584 -0.20609081 -0.05764088 2.9581411e-42
0.7904551 -0.20623055 -0.057507813 4.3958733e-42
0.78485596 -0.20527774 -0.057396561 1.887549e-42
0.79216957 -0.20570198 -0.057001114 5.4748731e-42
0.79401731 -0.20584765 -0.057967454 4.0441474e-42
0.7950058 -0.20465243 -0.057088315 1.9397964e-39
0.79612565 -0.20413145 -0.057685286 5.2491575e-39
0.79651356 -0.20295215 -0.057914406 1.2624449e-38
0.77948016 -0.24452366 -0.056676716 1.4655849e-38
0.77917886 -0.2436195 -0.056508064 1.4655495e-38
0.77755797 -0.24281126 -0.056708068 1.4655495e-38
0.77695632 -0.24100623 -0.056371331 1.5115402e-38
0.77725714 -0.24190874 -0.056539685 1.493065e-38
0.77503896 -0.23930371 -0.056401372 1.4380353e-38
0.77342504 -0.23850705 -0.056597233 1.032917e-38
0.77181369 -0.23771377 -0.056790531 1.8202867e-42
0.7699064 -0.23602787 -0.056814164 9.080414e-42
0.77041447 -0.2369345 -0.056550041 2.5994087e-42
0.76960778 -0.23513189 -0.056647032 9.0762102e-42
0.76770467 -0.23345429 -0.056668997 6.1993444e-42
0.76740658 -0.23255995 -0.056502163 6.1993444e-42
0.77037585 -0.23123333 -0.056656823 2.7659109e-39
0.76988691 -0.23037109 -0.056818873 6.1993444e-42
0.77094662 -0.23003668 -0.056552321 7.3468397e-40
0.77017248 -0.22842884 -0.056986511 5.840612e-42
0.77132797 -0.22887701 -0.056777626 1.1560712e-42
0.76987219 -0.22752795 -0.056818455 5.1273511e-42
0.76957196 -0.22662708 -0.0566504 5.4874848e-42
0.77015507 -0.22557753 -0.056984603 5.1273511e-42
0.77137959 -0.22585809 -0.056854457 2.5980074e-42
0.77273226 -0.22352481 -0.056214988 1.5162049e-42
0.76925266 -0.22286996 -0.056479484 4.7672174e-42
0.77239954 -0.22167215 -0.056066781 1.1560712e-42
0.77277982 -0.22051573 -0.056291431 1.1560712e-42
0.7731601 -0.21935934 -0.056516111 1.1560712e-42
0.77111232 -0.21880102 -0.056432784 3.7050331e-42
0.77354038 -0.21820295 -0.056740761 1.1560712e-42
0.77080989 -0.2178936 -0.056263506 3.7022305e-42
0.77392077 -0.21704656 -0.056965411 1.1560712e-42
0.77029538 -0.21697536 -0.056531027 4.4154915e-42
0.77269173 -0.21668103 -0.056213349 3.3420968e-42
0.77196246 -0.21574867 -0.056920201 5.4874848e-42
0.77238822 -0.21577033 -0.056043476 5.4874848e-42
0.77489126 -0.21587288 -0.056102186 1.1560712e-42
0.77296352 -0.21469301 -0.056369305 5.1273511e-42
0.77527153 -0.21471649 -0.056326836 1.5162049e-42
0.77265942 -0.21378067 -0.056199104 5.4874848e-42
0.77565181 -0.2135601 -0.056551516 1.1658803e-42
0.77192891 -0.21284661 -0.056907207 5.4874848e-42
0.77235538 -0.2128683 -0.056028903 5.4874848e-42
