# .PCD v0.7 - Point Cloud Data file format
VERSION 0.7
FIELDS x y z rgb
SIZE 4 4 4 4
TYPE F F F F
COUNT 1 1 1 1
WIDTH 165
HEIGHT 1
VIEWPOINT 0 0 0 1 0 0 0
POINTS 165
DATA ascii
0.95229042 0.43998671 -0.16230947 2.3970864e-39
0.95250666 0.44156015 -0.16045713 2.9484623e-39
0.95196944 0.44317186 -0.16015646 2.9484623e-39
0.95713574 0.44053364 -0.15910673 2.5821839e-39
0.95678908 0.42473841 -0.1589019 0
0.96013886 0.42532754 -0.15880889 0
0.95659691 0.44215024 -0.15880513 2.6743795e-39
0.95272291 0.44313359 -0.1586048 3.0406635e-39
0.95605808 0.44376695 -0.15850353 3.2246947e-39
0.95218575 0.4447453 -0.15830413 3.4991179e-39
0.95551926 0.44538361 -0.15820196 2.9484679e-39
0.95164853 0.44635707 -0.15800345 3.8679005e-39
0.96142954 0.42367744 -0.1575579 0
0.95754021 0.42470014 -0.15735495 0
0.96479124 0.4242515 -0.15745345 0
0.96089232 0.42528915 -0.15725723 0
0.96425241 0.42586815 -0.15715185 0
0.95700467 0.42630696 -0.1570552 0
0.95745295 0.43338633 -0.15730551 1.2907388e-39
0.95691574 0.4349981 -0.15700483 2.0293576e-39
0.95843035 0.43887848 -0.1578519 2.3981388e-39
0.95789152 0.44049513 -0.15755033 2.1219246e-39
0.9573527 0.44211185 -0.15724874 2.2141216e-39
0.95498043 0.44700027 -0.15790036 2.9491685e-39
0.95444161 0.44861698 -0.15759876 2.8569729e-39
0.96035516 0.42690098 -0.15695655 0
0.95646912 0.42791378 -0.15675545 0
0.95681387 0.44372845 -0.15694714 2.7633522e-39
0.95627505 0.44534516 -0.15664557 3.0399377e-39
0.95573622 0.44696188 -0.15634397 2.7647773e-39
0.95519739 0.44857848 -0.15604237 2.6725817e-39
0.95601869 0.45173049 -0.15650168 1.7495464e-39
0.96554703 0.42421305 -0.15589705 0
0.96164578 0.42525089 -0.15570557 0
0.9650082 0.42582971 -0.15559545 0
0.96768647 0.42565721 -0.15509871 0
0.9577558 0.42626882 -0.15550828 0
0.96110857 0.4268626 -0.1554049 0
0.95722026 0.42787564 -0.1552085 0
0.96446937 0.42744637 -0.15529388 0
0.96057141 0.42847437 -0.15510422 0
0.9576692 0.43495977 -0.15545318 1.8428084e-39
0.95713204 0.43657148 -0.1551525 2.3959737e-39
0.95810843 0.44207335 -0.15569234 2.6722089e-39
0.9575696 0.44369006 -0.15539074 2.4896295e-39
0.95703077 0.44530672 -0.15508917 2.4896295e-39
0.95827699 0.45561981 -0.15577561 0
0.96576393 0.42579126 -0.15403908 0
0.95668471 0.42948246 -0.15490875 0
0.96003419 0.43008614 -0.15480354 0
0.95659482 0.43818325 -0.15485182 2.5800133e-39
0.95649195 0.44692338 -0.15478757 2.4906861e-39
0.95595312 0.44854009 -0.15448597 1.3843484e-39
0.95677596 0.45169199 -0.15494213 2.2087154e-39
0.95903653 0.45558113 -0.15421131 0
0.96844369 0.42561865 -0.15353915 0
0.96186203 0.42682433 -0.15385321 0
0.9652251 0.42740798 -0.15373749 0
0.96132487 0.42843604 -0.15355256 0
0.95743585 0.42944431 -0.15336183 0
0.96468621 0.42902464 -0.15343589 0
0.96078765 0.43004781 -0.15325189 0
0.96414739 0.43064129 -0.15313429 0
0.9584226 0.43492138 -0.15390152 0
0.95788544 0.43653315 -0.15360084 1.8439126e-39
0.95734823 0.43814492 -0.15330017 1.4783671e-39
0.95832533 0.44365156 -0.15383437 1.662415e-39
0.9577865 0.44526827 -0.15353277 1.570218e-39
0.95753318 0.45165348 -0.15338257 0
0.96651965 0.42575282 -0.15248269 0
0.96598083 0.42736948 -0.15218109 0
0.96025044 0.43165958 -0.15295121 0
0.95971328 0.43327129 -0.15265054 0
0.95917606 0.43488312 -0.15234986 0
0.95863885 0.43649483 -0.15204918 0
0.95681107 0.43975669 -0.15299949 1.5709214e-39
0.95519948 0.444592 -0.15209746 1.5702124e-39
0.95670885 0.44850159 -0.15292957 5.5642059e-40
0.95509237 0.45335162 -0.15202481 0
0.96866107 0.42720008 -0.1516774 0
0.965442 0.42898619 -0.15187949 0
0.96154112 0.43000948 -0.15170023 0
0.96490318 0.43060285 -0.15157792 0
0.9610039 0.43162125 -0.15139952 0
0.96046668 0.43323302 -0.15109888 0
0.95810169 0.4381066 -0.15174851 5.6051939e-45
0.95756453 0.43971837 -0.15144783 4.2038954e-45
0.95702732 0.44133013 -0.15114716 2.3822074e-44
0.95746458 0.44846314 -0.15137318 1.5414283e-44
0.95692575 0.4500798 -0.15107161 0
0.96995825 0.42554164 -0.15042007 0
0.96673656 0.42733109 -0.15062469 5.8854536e-44
0.96619773 0.42894775 -0.15032312 6.5861028e-44
0.96229452 0.4299711 -0.15014854 0
0.9656589 0.4305644 -0.15002152 1.1630777e-43
0.95992953 0.43484473 -0.15079817 0
0.95939231 0.4364565 -0.15049753 0
0.95885509 0.43806827 -0.15019685 0
0.9564901 0.4429419 -0.15084648 2.1019477e-44
0.95595294 0.44455361 -0.15054581 1.6815582e-44
0.95904773 0.45157641 -0.15026349 0
0.96803111 0.42567593 -0.1493699 7.3866085e-40
0.96749228 0.42729259 -0.1490683 3.0411316e-39
0.9617573 0.43158293 -0.14984787 0
0.96122015 0.43319464 -0.14954719 0
0.96068293 0.43480641 -0.14924651 0
0.95831794 0.43968004 -0.14989617 0
0.95778078 0.44129181 -0.1495955 0
0.95724356 0.44290358 -0.14929482 0
0.9582203 0.4484247 -0.14981681 0
0.95850784 0.45319641 -0.14996126 0
0.97017562 0.42712307 -0.14855832 4.6218467e-40
0.96695346 0.4289093 -0.14876673 4.2396747e-39
0.96304798 0.42993283 -0.14859688 1.1630777e-43
0.96251076 0.43154454 -0.14829621 5.5112228e-40
0.96014577 0.43641818 -0.14894587 0
0.95960855 0.43802989 -0.14864519 0
0.95907134 0.43964171 -0.14834452 7.3756504e-40
0.96242589 0.44026446 -0.14821199 9.2160738e-40
0.95853418 0.44125342 -0.14804384 2.3030677e-39
0.95670635 0.44451535 -0.14899415 0
0.96005374 0.44515288 -0.14886358 2.3030677e-39
0.95897609 0.44838625 -0.14826041 3.4097739e-39
0.96824801 0.42725414 -0.1475119 5.1637848e-42
0.9643386 0.42828274 -0.1473459 5.4378998e-39
0.96770918 0.4288708 -0.14721033 1.57393e-39
0.96380138 0.42989445 -0.14704522 5.161313e-39
0.96197361 0.43315631 -0.14799553 1.0089349e-43
0.96143639 0.43476808 -0.14769486 2.3822074e-44
0.96089917 0.43637979 -0.14739421 2.6624671e-44
0.96188706 0.44188112 -0.14791039 2.7655186e-39
0.96134824 0.44349778 -0.14760879 2.768387e-39
0.95745981 0.44447696 -0.14744249 2.6722089e-39
0.96080941 0.44511449 -0.14730719 2.953137e-39
0.96027058 0.44673115 -0.14700559 3.5938373e-39
0.95843726 0.45000291 -0.14795882 3.1310192e-39
0.96326417 0.43150628 -0.14674455 5.5268389e-39
0.96272701 0.43311799 -0.14644387 4.4204927e-39
0.96218985 0.43472975 -0.1461432 3.4083839e-39
0.96210402 0.44345933 -0.14605239 3.5034339e-39
0.95973176 0.44834781 -0.14670402 4.0544567e-39
0.96900374 0.4272157 -0.14595553 1.0789998e-43
0.965092 0.42824435 -0.14579424 5.2589232e-39
0.96846491 0.42883241 -0.14565393 9.2207401e-40
0.96455485 0.42985618 -0.14549357 3.1384237e-39
0.96792608 0.43044901 -0.14535233 3.7773612e-39
0.96401763 0.43146789 -0.14519289 4.515533e-39
0.96165264 0.43634152 -0.14584252 1.2878844e-39
0.96111542 0.43795323 -0.14554185 1.2896822e-39
0.96057826 0.43956506 -0.14524117 3.1335948e-39
0.9639374 0.44018757 -0.14509919 1.2611686e-44
0.9615652 0.44507599 -0.14575079 3.7800208e-39
0.96348041 0.43307966 -0.14489222 3.8701636e-39
0.96294326 0.43469143 -0.14459154 3.8679551e-39
0.9624061 0.43630314 -0.14429086 1.8371724e-40
0.96285975 0.44342089 -0.14449599 2.5832923e-39
0.95896667 0.44440031 -0.14433914 4.0537533e-39
0.96232092 0.44503754 -0.14419442 2.6754879e-39
0.95842952 0.44601208 -0.14403847 4.0537533e-39
0.96530825 0.4298178 -0.14394191 1.1962423e-39
0.96477109 0.43142956 -0.14364123 6.4459729e-44
0.96423388 0.43304133 -0.14334056 7.1466222e-44
0.96369672 0.43465304 -0.14303988 4.3440252e-44
0.96133167 0.43952668 -0.14368951 2.3942375e-39
0.9617821 0.4466542 -0.14389282 3.3183392e-39
