# .PCD v0.7 - Point Cloud Data file format
VERSION 0.7
FIELDS x y z rgb
SIZE 4 4 4 4
TYPE F F F F
COUNT 1 1 1 1
WIDTH 980
HEIGHT 1
VIEWPOINT 0 0 0 1 0 0 0
POINTS 980
DATA ascii
0.7292707 0.0092894435 -0.12397146 2.3507716e-38
0.73199958 0.0092206597 -0.12327632 2.3508798e-38
0.73425353 0.0091695786 -0.12356487 2.3508798e-38
0.78184283 0.0091736317 -0.12300238 2.321097e-38
0.82144201 0.0090079308 -0.12374705 2.3497993e-38
0.82399201 0.009416461 -0.12385041 2.2939385e-38
0.8253727 0.0090609193 -0.1232523 2.2104933e-38
0.82873142 0.0091069341 -0.12381962 2.2019261e-38
0.83049524 0.0099013746 -0.12343568 2.2387305e-38
0.70929044 0.01052615 -0.1235321 1.1053727e-38
0.71358371 0.010958314 -0.12308946 2.2672903e-38
0.71800733 0.010960281 -0.12375161 2.3508075e-38
0.72515982 0.010888606 -0.12372276 2.3506279e-38
0.72668755 0.010350764 -0.12347862 2.3506995e-38
0.73236883 0.010756105 -0.12362921 2.3508797e-38
0.73462301 0.010706633 -0.12391585 2.3509879e-38
0.73843062 0.010087401 -0.12393263 2.3509518e-38
0.75383794 0.010018796 -0.12398219 1.1870212e-38
0.78219891 0.01025632 -0.12321272 2.3026939e-38
0.80405629 0.010056674 -0.12304941 2.3505551e-38
0.8210187 0.010517269 -0.12349045 2.3502651e-38
0.82574809 0.010202587 -0.12347409 2.3491107e-38
0.83306479 0.010331601 -0.12351999 2.3495815e-38
0.84863734 0.010349363 -0.12393105 1.6492218e-38
0.70986545 0.011517912 -0.12326029 1.2066434e-38
0.71277833 0.011987925 -0.12387004 1.4738661e-38
0.71545666 0.011971653 -0.12323487 2.3509153e-38
0.71766996 0.011972547 -0.12356278 2.3508435e-38
0.71918446 0.011451453 -0.12333137 2.3506635e-38
0.73083115 0.01130572 -0.12388381 2.3507355e-38
0.73202491 0.01178804 -0.12343672 2.3508077e-38
0.73427796 0.011741817 -0.12372273 2.3509881e-38
0.80442202 0.011168838 -0.12326548 2.3505193e-38
0.83087289 0.011049598 -0.12365872 2.3497975e-38
0.83344352 0.011483103 -0.12374371 2.3498346e-38
0.84962165 0.011539608 -0.12305561 1.6217073e-38
0.70758092 0.012975335 -0.12395796 1.1795629e-38
0.70895278 0.012914002 -0.12382561 1.0502354e-38
0.71394861 0.012484312 -0.12345991 2.2580707e-38
0.71512038 0.01298064 -0.12304664 2.3509153e-38
0.71733254 0.012984812 -0.12337396 2.3508075e-38
0.71955001 0.012982279 -0.12369618 2.3506635e-38
0.72329468 0.012443542 -0.12377396 2.3507358e-38
0.73393297 0.01277703 -0.12352961 2.3229692e-38
0.81451273 0.012702495 -0.12380141 2.3500865e-38
0.83125043 0.012197793 -0.12388179 2.3498345e-38
0.84599507 0.012582362 -0.12386838 1.5571338e-38
0.84740174 0.012240559 -0.12323275 1.6309269e-38
0.8500073 0.012712389 -0.12328345 1.6217073e-38
0.70874411 0.013476908 -0.12355793 1.3269314e-38
0.70977759 0.013911426 -0.12309197 1.2158988e-38
0.72072899 0.013475001 -0.1232709 2.3506276e-38
0.72295451 0.013463974 -0.12358359 2.3507358e-38
0.73239249 0.013328373 -0.12378863 2.3508437e-38
0.80185354 0.013397515 -0.12306127 2.3506637e-38
0.80436325 0.013769239 -0.12320998 2.3504834e-38
0.83082485 0.01371032 -0.12363198 2.3497263e-38
0.83221412 0.013363123 -0.12302467 2.3498346e-38
0.84778643 0.013410062 -0.12345996 1.6309269e-38
0.85039294 0.01388517 -0.12351128 1.6125956e-38
0.71010077 0.014894187 -0.12328291 1.1974594e-38
0.71431243 0.014013618 -0.12382975 2.2395963e-38
0.71769673 0.014517277 -0.12374002 2.3508075e-38
0.72039002 0.014492154 -0.12308115 2.3506995e-38
0.72261441 0.014484465 -0.12339324 2.3505197e-38
0.72484416 0.014470041 -0.12370026 2.3505557e-38
0.73204803 0.014361948 -0.1235958 2.3509516e-38
0.73324287 0.014847398 -0.1231434 2.3412285e-38
0.7997123 0.014136493 -0.12312213 2.3506281e-38
0.80086386 0.014864385 -0.12382734 2.3506639e-38
0.80221772 0.01450479 -0.12327638 2.3505917e-38
0.80472851 0.014879763 -0.12342575 2.3504474e-38
0.82863498 0.01442191 -0.12376168 2.3500846e-38
0.83120203 0.014856875 -0.12385473 2.3495109e-38
0.83259177 0.014511347 -0.12324774 2.3498354e-38
0.848171 0.014579564 -0.12368715 1.6125956e-38
0.71042395 0.015876979 -0.12347385 1.1974594e-38
0.71618462 0.015033424 -0.12397078 2.3508797e-38
0.71735883 0.015531182 -0.12355086 2.3506999e-38
0.71887308 0.015013337 -0.12331727 2.3506995e-38
0.72450298 0.015493751 -0.12350926 2.3504837e-38
0.73241401 0.015907228 -0.12394688 2.3509874e-38
0.73621112 0.015312672 -0.12396377 1.8886077e-38
0.80258179 0.015612036 -0.1234915 2.3505917e-38
0.81445718 0.015322447 -0.1237559 2.350195e-38
0.81699431 0.015727371 -0.12388012 2.3502673e-38
0.81916535 0.015008748 -0.12377995 2.3508801e-38
0.82901096 0.015565187 -0.1239838 2.3498339e-38
0.83296931 0.015659541 -0.12347081 2.3497273e-38
0.8507787 0.015057951 -0.12373912 1.6309989e-38
0.72075409 0.016029477 -0.12344316 2.3507716e-38
0.73206896 0.016942412 -0.12375376 2.3508793e-38
0.80294597 0.016719311 -0.12370661 2.3503754e-38
0.81953704 0.016138941 -0.12399954 2.3508791e-38
0.82128549 0.01692161 -0.1236349 2.3508438e-38
0.82346451 0.016209722 -0.1235252 2.3507708e-38
0.8355459 0.016106188 -0.12355524 2.3499432e-38
0.84774327 0.016103357 -0.12345034 1.6125956e-38
0.84953713 0.016935974 -0.12304136 1.6309625e-38
0.71001029 0.017279506 -0.12311301 1.2526339e-38
0.7177214 0.017068595 -0.12391606 2.3506999e-38
0.71889746 0.017567903 -0.12349114 2.3505916e-38
0.72111708 0.017570078 -0.12380454 2.3505553e-38
0.7317239 0.017977595 -0.12356064 2.3507351e-38
0.7355178 0.017392904 -0.12357572 1.7129599e-38
0.81323409 0.017181605 -0.12300807 2.350159e-38
0.8165673 0.017220378 -0.12361723 2.3502312e-38
0.81831074 0.01799801 -0.12325785 2.3508791e-38
0.82383776 0.017344832 -0.12374571 2.3506267e-38
0.82858348 0.017069548 -0.12373087 2.3127394e-38
0.84812737 0.017271221 -0.12367722 1.6217429e-38
0.71033293 0.018260658 -0.12330362 1.2987317e-38
0.72077698 0.01859051 -0.12361419 2.3504834e-38
0.72675824 0.018048316 -0.12397477 2.3505557e-38
0.73018694 0.018520743 -0.12381959 2.3507715e-38
0.73362809 0.018982887 -0.1236473 2.1932085e-38
0.80251896 0.018197745 -0.12343159 2.3503392e-38
0.81693745 0.018345654 -0.12383586 2.3502312e-38
0.82085729 0.018416166 -0.12337542 2.3508791e-38
0.82895899 0.018211216 -0.12395266 2.3311432e-38
0.84851146 0.018439084 -0.12390411 1.6217429e-38
0.70941764 0.019643694 -0.12386325 1.1789142e-38
0.72265959 0.019613028 -0.12373093 2.3504472e-38
0.7264154 0.019076943 -0.1237829 2.3505197e-38
0.73137891 0.019012809 -0.12336752 2.350663e-38
0.80288267 0.019303367 -0.12364638 2.3502312e-38
0.81397104 0.019422323 -0.12344337 2.3501951e-38
0.81650877 0.019833758 -0.12357202 2.3502669e-38
0.81868136 0.019124925 -0.12347677 2.3507353e-38
0.82260764 0.019202128 -0.12300989 2.3501226e-38
0.82516372 0.019631952 -0.12311891 2.3222111e-38
0.85030639 0.019274995 -0.12349576 1.6309269e-38
0.72113836 0.020136058 -0.12397468 2.3504115e-38
0.73103386 0.020047992 -0.1231744 2.3505193e-38
0.73328197 0.020021379 -0.12345359 2.1563663e-38
0.79994631 0.020395473 -0.12321058 2.3501221e-38
0.80245411 0.020776868 -0.12337041 2.3499431e-38
0.81433952 0.020542696 -0.12366104 2.350159e-38
0.81825185 0.020612985 -0.12321448 2.3507353e-38
0.82553697 0.020767063 -0.12333941 2.2761133e-38
0.84987569 0.020792231 -0.12325922 1.6217073e-38
0.70900202 0.021038085 -0.12349927 1.206573e-38
0.72079766 0.021158129 -0.12378401 2.3411201e-38
0.73020494 0.021107823 -0.12397787 2.3506273e-38
0.73293585 0.021059841 -0.12325987 2.1745106e-38
0.81862199 0.021738276 -0.12343308 2.3504481e-38
0.70932364 0.022015959 -0.12368923 1.206644e-38
0.71893948 0.022696614 -0.12383512 2.3504472e-38
0.72045702 0.022180229 -0.12359333 2.3410838e-38
0.8156482 0.022800118 -0.12304237 2.3503755e-38
0.81899202 0.022863552 -0.12365171 2.3506281e-38
0.82036829 0.022522464 -0.1230734 2.3504115e-38
0.82766855 0.022699684 -0.12318894 2.3312155e-38
0.70890641 0.023405418 -0.1233243 1.1605461e-38
0.72011638 0.02320233 -0.12340266 2.3503033e-38
0.73175818 0.023161471 -0.12387216 2.3503747e-38
0.82628357 0.02303727 -0.12378046 2.3503375e-38
0.72047502 0.024756014 -0.12376162 2.3502668e-38
0.81856036 0.024345055 -0.12338811 2.350557e-38
0.82329249 0.024083987 -0.12341002 2.350949e-38
0.70880866 0.025766194 -0.12314805 1.4739757e-38
0.72013384 0.025779754 -0.12357065 2.3502307e-38
0.78884149 0.025462419 -0.12310183 2.2576038e-38
0.7959553 0.025488153 -0.12344298 2.3500501e-38
0.79980838 0.025524288 -0.12307939 2.3499422e-38
0.82030642 0.025130868 -0.1230303 2.3501597e-38
0.70912921 0.026740789 -0.12333742 1.4464615e-38
0.7186166 0.02629292 -0.12381464 2.3503388e-38
0.72423553 0.026833445 -0.12397641 2.3503028e-38
0.78919756 0.026545107 -0.12331218 2.312489e-38
0.79552341 0.026943728 -0.12315887 2.3500507e-38
0.80016935 0.026621729 -0.1232926 2.3500863e-38
0.82798278 0.026459515 -0.12337416 2.3497645e-38
0.70944965 0.02771537 -0.12352675 1.3911441e-38
0.71676195 0.02782315 -0.12386569 2.3504108e-38
0.79089522 0.027279198 -0.12300307 2.0910421e-38
0.79338598 0.027653575 -0.12318936 2.1367746e-38
0.79802418 0.027328104 -0.1233348 2.3501223e-38
0.71642184 0.028843611 -0.12367532 2.3504108e-38
0.71793526 0.028337091 -0.12343329 2.3411191e-38
0.79125178 0.028363526 -0.12321374 2.1186261e-38
0.79374361 0.028741181 -0.12340066 2.3488245e-38
0.79588223 0.028034613 -0.1233708 2.3500507e-38
0.79759085 0.028781995 -0.12305191 2.3500507e-38
0.80224657 0.028474927 -0.12317929 2.3499428e-38
0.80692005 0.028181314 -0.12328449 2.3498709e-38
0.82872939 0.028729722 -0.12381521 2.2382598e-38
0.70902872 0.02909337 -0.12315959 1.3726684e-38
0.71608168 0.029864073 -0.12348494 2.3503749e-38
0.71829045 0.029899001 -0.12379226 2.3411191e-38
0.72202528 0.029412329 -0.12384453 2.3316837e-38
0.73143649 0.029413342 -0.12398449 2.1288533e-38
0.79160845 0.029447854 -0.12342438 2.2753947e-38
0.79624093 0.029125482 -0.12358275 2.3500141e-38
0.79795015 0.029874519 -0.12326416 2.3500507e-38
0.80260801 0.029573992 -0.12339279 2.3499785e-38
0.80728364 0.029286936 -0.1234993 2.3498709e-38
0.81117666 0.029366389 -0.12309623 2.3496523e-38
0.8209815 0.029980004 -0.12342253 2.3499718e-38
0.70934868 0.030066311 -0.12334862 1.3726684e-38
0.71090865 0.030653656 -0.12317792 1.3447926e-38
0.71794927 0.030922741 -0.12360129 2.3502668e-38
0.72390461 0.030460745 -0.12394539 2.3317193e-38
0.73108929 0.030455083 -0.12379014 2.1654778e-38
0.79117441 0.030892 -0.12313497 2.2386972e-38
0.79330993 0.03018856 -0.12311345 2.2572069e-38
0.79659963 0.030216366 -0.12379467 2.3498702e-38
0.79830945 0.030967042 -0.12347642 2.3500501e-38
0.80296946 0.030673057 -0.12360632 2.3499065e-38
0.80432773 0.030334666 -0.12306413 2.3498712e-38
0.80684865 0.03074564 -0.12322351 2.3498703e-38
0.8090111 0.03005594 -0.12316298 2.3498703e-38
0.81879914 0.030659378 -0.12351197 2.3502291e-38
0.70966864 0.031039268 -0.12353763 1.3724166e-38
0.71272469 0.031880975 -0.12377232 1.9259494e-38
0.73298562 0.031492949 -0.12386441 2.1378548e-38
0.79366696 0.031274542 -0.12332442 2.19267e-38
0.80002189 0.031721041 -0.12315574 2.3498702e-38
0.80468965 0.031435385 -0.12327796 2.3498703e-38
0.81916761 0.031779736 -0.12372965 2.350197e-38
0.83123946 0.031810582 -0.12388629 2.3500505e-38
0.70998859 0.032012224 -0.12372664 1.3539416e-38
0.71030855 0.032985166 -0.12391567 1.3262825e-38
0.71458435 0.032949686 -0.12389627 2.147328e-38
0.79866874 0.032059565 -0.12368867 2.3499422e-38
0.80038178 0.032815203 -0.12336829 2.3498699e-38
0.80253398 0.03212525 -0.12332618 2.3498699e-38
0.81364191 0.03236647 -0.1231856 2.3502291e-38
0.81698751 0.032455906 -0.12381235 2.3501248e-38
0.81953609 0.032900095 -0.12394729 2.3500529e-38
0.82822955 0.032817826 -0.12351897 2.3502669e-38
0.71088165 0.033389688 -0.12381789 1.3635908e-38
0.71204662 0.033915311 -0.12339282 1.8982182e-38
0.71424425 0.033970147 -0.12370589 2.0918296e-38
0.72885919 0.033068746 -0.12366921 2.3130265e-38
0.7310977 0.033073217 -0.12394103 2.1840271e-38
0.73678738 0.033568263 -0.12399408 2.0089624e-38
0.79572952 0.033107817 -0.12322268 2.3499779e-38
0.79823267 0.033505276 -0.1234042 2.3498699e-38
0.80930233 0.033725902 -0.12331834 2.3496903e-38
0.82266355 0.033367679 -0.12302032 2.3499785e-38
0.82522464 0.033825219 -0.12314242 2.350231e-38
0.83080196 0.033287063 -0.12362945 2.3499068e-38
0.71390414 0.034990609 -0.12351552 2.1010492e-38
0.72851253 0.034108847 -0.12347516 2.2856218e-38
0.72970045 0.034622073 -0.12301278 2.322318e-38
0.73074991 0.034116596 -0.1237464 2.3223207e-38
0.73194075 0.034628034 -0.12327954 2.322357e-38
0.79608715 0.034195423 -0.12343395 2.3498335e-38
0.79859149 0.03459616 -0.12361613 2.3498699e-38
0.79994488 0.034260884 -0.12308538 2.3498699e-38
0.81356955 0.034935623 -0.12313023 2.3496919e-38
0.82047629 0.034037158 -0.12311098 2.3497621e-38
0.82303309 0.034491315 -0.12323862 2.3499065e-38
0.82559526 0.034952134 -0.12336135 2.3500148e-38
0.82779133 0.034289405 -0.12325966 2.3499422e-38
0.83117521 0.034422174 -0.12384996 2.3496907e-38
0.71020383 0.035324633 -0.12373531 1.2251552e-38
0.71239734 0.035483897 -0.12375531 1.8797787e-38
0.71610588 0.035042018 -0.12382296 2.3409389e-38
0.72170258 0.035644889 -0.12397632 2.2948766e-38
0.72322583 0.035131395 -0.12371969 2.2949131e-38
0.72886628 0.035688579 -0.12382135 2.2671468e-38
0.73159242 0.035673052 -0.1230846 2.3407574e-38
0.80886436 0.035178035 -0.12304285 2.349726e-38
0.82421136 0.035275161 -0.12393922 2.349871e-38
0.82816303 0.035419598 -0.12347922 2.3496901e-38
0.83294117 0.035237759 -0.1234794 2.3496907e-38
0.71052325 0.03629595 -0.12392402 1.1882771e-38
0.71101904 0.036310419 -0.12301025 1.2524172e-38
0.71356404 0.03601104 -0.12332517 2.1193082e-38
0.7157647 0.036065727 -0.12363198 2.3409389e-38
0.7213586 0.036676794 -0.1237838 2.2671821e-38
0.72288138 0.036164969 -0.12352687 2.303988e-38
0.73005438 0.036203355 -0.12335709 2.2946594e-38
0.73454058 0.036211818 -0.12388182 2.082721e-38
0.79986572 0.036794171 -0.12301373 2.34969e-38
0.8139348 0.036046162 -0.123346 2.3497631e-38
0.82596588 0.036079064 -0.12358028 2.3313956e-38
0.82853472 0.036549792 -0.1236988 2.3403998e-38
0.83250117 0.036709294 -0.12322316 2.3497267e-38
0.71009684 0.037657604 -0.12355366 1.2526689e-38
0.7139138 0.037584543 -0.12368521 2.100869e-38
0.71542346 0.037089467 -0.12344101 2.3317193e-38
0.72253692 0.037198514 -0.12333408 2.2486707e-38
0.7304073 0.037787944 -0.12370077 2.3039164e-38
0.73264802 0.037797153 -0.1239638 2.3315378e-38
0.73419064 0.037261754 -0.12368593 2.2022489e-38
0.73644054 0.037259161 -0.12394005 1.9074046e-38
0.82158172 0.037398264 -0.12376395 2.3127041e-38
0.82414162 0.037862241 -0.12389353 2.3496912e-38
0.8263365 0.037205979 -0.1237992 2.3404717e-38
0.8289063 0.037679985 -0.12391835 2.3403998e-38
0.83029616 0.037362024 -0.12333375 2.3405073e-38
0.83287454 0.037844405 -0.12344369 2.349762e-38
0.71041572 0.038627267 -0.12374204 1.2895472e-38
0.71240675 0.038076222 -0.12392685 1.8337532e-38
0.7135731 0.038606614 -0.12349454 2.0916857e-38
0.71949506 0.038215548 -0.12384596 2.3039161e-38
0.72219241 0.038232088 -0.12314126 2.2762221e-38
0.72887111 0.038314939 -0.1239723 2.27633e-38
0.73005903 0.038832963 -0.1235058 2.3223555e-38
0.73229861 0.03884542 -0.12376824 2.2763303e-38
0.78709984 0.038383171 -0.12319538 2.3496926e-38
0.81132102 0.038164869 -0.12313741 2.3495829e-38
0.81248927 0.038930535 -0.12384221 2.3495454e-38
0.82195008 0.038518623 -0.1239816 2.3494379e-38
0.82589591 0.038667768 -0.12353644 2.3312521e-38
0.83066833 0.038493857 -0.12355363 2.3312158e-38
0.83324778 0.038979515 -0.1236642 2.349798e-38
0.70998776 0.039983958 -0.12337071 1.3170616e-38
0.71056283 0.039583385 -0.1239759 1.1606528e-38
0.71206665 0.039096683 -0.12373647 1.8153141e-38
0.71323246 0.039628714 -0.12330386 2.0732826e-38
0.71474111 0.039136916 -0.12305903 2.3224642e-38
0.71763515 0.039747685 -0.12390617 2.3408667e-38
0.71915162 0.039245844 -0.12365374 2.322283e-38
0.7213648 0.03929022 -0.12394348 2.3222474e-38
0.72254276 0.039815187 -0.12349156 2.2854417e-38
0.72629303 0.039334148 -0.12350634 2.3130278e-38
0.72747743 0.03985557 -0.12304398 2.3130278e-38
0.72852337 0.039358318 -0.12377766 2.2946247e-38
0.7297107 0.039877981 -0.12331086 2.2946247e-38
0.73419291 0.039902747 -0.12382939 2.3499786e-38
0.8310405 0.039625689 -0.12377352 2.3127407e-38
0.8372308 0.03915894 -0.12317392 2.0821077e-38
0.83982444 0.039659604 -0.12327036 1.8149566e-38
0.7102232 0.040602207 -0.12378582 1.1699084e-38
0.71172655 0.040117145 -0.12354609 1.8335733e-38
0.71289182 0.040650785 -0.12311319 2.0916494e-38
0.71729231 0.040776312 -0.1237143 2.303953e-38
0.72102034 0.040323764 -0.12375066 2.3222474e-38
0.72219771 0.040850401 -0.12329844 2.2854049e-38
0.73384243 0.040954322 -0.12363324 2.2762221e-38
0.73609042 0.040959924 -0.12388423 2.3500144e-38
0.77236009 0.040741995 -0.1231502 2.3486834e-38
0.78701282 0.040877283 -0.1231069 2.3497612e-38
0.82663608 0.04091832 -0.12397367 2.3495828e-38
0.82802343 0.040603518 -0.12339586 2.2944097e-38
0.83141279 0.040757522 -0.1239934 2.3219604e-38
0.83362103 0.040114626 -0.12388474 2.3498353e-38
0.83539045 0.040938422 -0.12351421 2.3500158e-38
0.83760571 0.040298954 -0.12339538 2.0728523e-38
0.84020042 0.040802911 -0.12349248 1.8056651e-38
0.70906544 0.041323006 -0.12390795 1.1513982e-38
0.71138644 0.041137576 -0.12335575 1.8059506e-38
0.71577907 0.041273177 -0.12396449 2.304061e-38
0.71915656 0.041860938 -0.12381473 2.2486358e-38
0.72067583 0.041357338 -0.12355784 2.3130278e-38
0.72185266 0.041885585 -0.12310535 2.2761851e-38
0.72407174 0.041928053 -0.12338433 2.2576741e-38
0.76405978 0.041085556 -0.12305588 2.3488987e-38
0.77270591 0.04179357 -0.12335449 2.2939779e-38
0.79584014 0.041751191 -0.12320128 2.3311455e-38
0.80907118 0.041374564 -0.12313154 2.3495461e-38
0.821877 0.041092634 -0.12393183 2.3509881e-38
0.82839406 0.041730434 -0.12361479 2.3312524e-38
0.83236265 0.041906208 -0.12314853 2.3500152e-38
0.84057641 0.041946203 -0.1237146 1.7688228e-38
0.70987654 0.042303801 -0.12318653 1.2985146e-38
0.71173269 0.042719305 -0.12371582 1.8058427e-38
0.71323889 0.042232454 -0.12347165 2.0547713e-38
0.72033131 0.042390883 -0.12336501 2.2578187e-38
0.73195016 0.042536408 -0.1237174 2.2854051e-38
0.7852335 0.042626113 -0.1233083 2.275395e-38
0.79619622 0.042833894 -0.1234116 2.1190595e-38
0.8094331 0.042475283 -0.12334538 2.3495087e-38
0.81277537 0.04258737 -0.12399659 2.3494015e-38
0.82619321 0.042373553 -0.12370962 2.3500144e-38
0.82876468 0.042857349 -0.12383372 2.3499076e-38
0.83096993 0.042217597 -0.1237334 2.349835e-38
0.83576429 0.042075172 -0.12373504 2.3503756e-38
0.83835554 0.042578995 -0.12383834 2.1003314e-38
0.7089535 0.043637931 -0.12372127 1.1328153e-38
0.70920455 0.043658674 -0.12321565 1.3078421e-38
0.71021175 0.043236472 -0.12366585 1.2802196e-38
0.71139205 0.043741405 -0.12352514 1.778184e-38
0.72067869 0.043980598 -0.12371573 2.2762219e-38
0.73160022 0.043586344 -0.12352154 2.2669303e-38
0.73384202 0.04360351 -0.12377515 2.2946247e-38
0.77226603 0.043196976 -0.1230433 2.1464648e-38
0.79790449 0.043592617 -0.12310266 2.2476257e-38
0.80898964 0.043911055 -0.12306669 2.3495087e-38
0.82399571 0.043016776 -0.12379825 2.3500135e-38
0.82656276 0.04349719 -0.12392792 2.3498705e-38
0.83134162 0.043347791 -0.12395296 2.3499425e-38
0.83273494 0.04303804 -0.12336841 2.3502305e-38
0.83613813 0.043211907 -0.12395588 2.3504835e-38
0.8409524 0.043089494 -0.12393671 1.7687874e-38
0.7077055 0.044135451 -0.12345377 1.1790573e-38
0.709517 0.044609882 -0.1234549 1.2064629e-38
0.73349094 0.044656724 -0.12357867 2.2945897e-38
0.81233227 0.04402636 -0.12372008 2.3492573e-38
0.83310711 0.044169873 -0.12358829 2.3502665e-38
0.8356936 0.044671968 -0.12369895 2.3508441e-38
0.71008044 0.045581833 -0.12318853 1.2617077e-38
0.72372687 0.04559952 -0.12334347 2.312884e-38
0.73194891 0.045185626 -0.12386093 2.294625e-38
0.74144614 0.045195132 -0.12381235 2.3497614e-38
0.79997253 0.045440674 -0.12300223 2.3495818e-38
0.80935109 0.045010135 -0.1232802 2.3493289e-38
0.83347929 0.045301706 -0.12380818 2.3502665e-38
0.83606684 0.045807064 -0.12391949 2.3501598e-38
0.837466 0.045502335 -0.12332815 2.0172485e-38
0.71039772 0.046546593 -0.12337595 1.2800389e-38
0.72338021 0.046639651 -0.12314942 2.3037361e-38
0.73159844 0.0462372 -0.12366474 2.3222474e-38
0.74109125 0.04625982 -0.12361372 2.303807e-38
0.79781699 0.046098098 -0.12302408 2.3491136e-38
0.80032969 0.046526641 -0.1232132 2.3496538e-38
0.80890608 0.046440944 -0.12300059 2.3493289e-38
0.81144285 0.046894521 -0.12316522 2.3400015e-38
0.83783984 0.046639085 -0.12354901 2.0265755e-38
0.84006214 0.046016052 -0.12343031 1.7687872e-38
0.710715 0.047511354 -0.12356338 1.298478e-38
0.72254729 0.047704488 -0.12395674 2.2761851e-38
0.73124796 0.047288775 -0.12346858 2.0825747e-38
0.79817307 0.047180787 -0.12323442 2.3494019e-38
0.80068684 0.047612607 -0.12342417 2.3494725e-38
0.80456686 0.047735497 -0.12308052 2.3494009e-38
0.80926704 0.047538385 -0.1232138 2.3308541e-38
0.83340514 0.047885403 -0.123768 2.3500854e-38
0.83821368 0.047775835 -0.12376985 2.0634539e-38
0.84043705 0.047156066 -0.12365177 1.7871903e-38
0.71028101 0.04885006 -0.12318856 1.3446109e-38
0.7237258 0.048239112 -0.12349507 2.2945164e-38
0.72490585 0.048773617 -0.12303033 2.3037361e-38
0.79852915 0.048263475 -0.12344477 2.349257e-38
0.80104399 0.048698574 -0.12363514 2.3495085e-38
0.80240226 0.048382923 -0.12311128 2.3495447e-38
0.80492556 0.048826382 -0.12329248 2.3492198e-38
0.80962789 0.048635811 -0.123427 2.3494733e-38
0.81434798 0.048458755 -0.12353942 2.3504475e-38
0.83858752 0.048912585 -0.12399068 2.0450494e-38
0.84081197 0.048296094 -0.12387326 1.7688228e-38
0.71059775 0.049813181 -0.12337568 1.381489e-38
0.72407037 0.049841821 -0.12384018 2.257746e-38
0.80140114 0.049784541 -0.12384611 2.3495091e-38
0.80275989 0.049470529 -0.12332258 2.3494722e-38
0.80528426 0.049917266 -0.1235044 2.3492919e-38
0.81135786 0.049422801 -0.12310034 2.3402186e-38
0.83377683 0.049015597 -0.12398759 2.3497972e-38
0.72372258 0.050885201 -0.12364551 2.2300875e-38
0.76766908 0.050461993 -0.12389597 2.2018898e-38
0.80231249 0.050886691 -0.12303546 2.3494e-38
0.70967156 0.051132619 -0.12390441 1.0960095e-38
0.72490239 0.051422954 -0.12317854 2.2484543e-38
0.76854205 0.051517606 -0.12311956 1.759497e-38
0.8009541 0.051199093 -0.12355718 2.3495091e-38
0.71047848 0.052108437 -0.12318668 1.3815633e-38
0.72406554 0.052492827 -0.12398964 2.211576e-38
0.80600178 0.052099034 -0.12392825 2.3494366e-38
0.70955145 0.053423002 -0.12371299 1.1143407e-38
0.71079469 0.053069919 -0.12337348 1.3907828e-38
0.79834557 0.053248197 -0.12328252 2.349257e-38
0.80166733 0.053367749 -0.1239785 2.3495087e-38
0.8030268 0.053058624 -0.12345743 2.3494012e-38
0.80474567 0.05383715 -0.12314457 2.3493304e-38
0.80691731 0.053206161 -0.12311393 2.3494745e-38
0.70986712 0.054382846 -0.12389943 1.1051211e-38
0.74323797 0.054832056 -0.12316775 2.3494733e-38
0.80338395 0.054144591 -0.1236684 2.3492584e-38
0.80510342 0.054924756 -0.12335587 2.3493664e-38
0.80727613 0.054297045 -0.12332585 2.3494023e-38
0.82184386 0.054974958 -0.12387949 2.3507353e-38
0.71067268 0.055356994 -0.12318292 1.4183677e-38
0.79905558 0.055407017 -0.12370193 2.3495475e-38
0.80157411 0.055858463 -0.1238986 2.3496907e-38
0.8037411 0.055230558 -0.12387937 2.3495825e-38
0.80763483 0.055387929 -0.12353781 2.3495818e-38
0.70974433 0.056665018 -0.12370643 1.1050493e-38
0.80465245 0.056332707 -0.12306872 2.3496173e-38
0.70930481 0.057984084 -0.12332621 1.0958647e-38
0.80364716 0.057721227 -0.12380102 1.8239248e-38
0.8050096 0.057418674 -0.12327969 2.3215624e-38
0.7993139 0.058964044 -0.12382767 9.3776855e-39
0.80067146 0.058661357 -0.12331557 1.4362348e-38
0.84273851 0.05804041 -0.1236186 1.6215263e-38
0.70837677 0.059285656 -0.12384376 1.1051211e-38
0.709934 0.059897214 -0.12369791 1.0958647e-38
0.72709954 0.059476852 -0.12386981 2.3312877e-38
0.7853508 0.059520483 -0.12314287 1.5887541e-38
0.78784144 0.059950009 -0.12337393 1.3596422e-38
0.80102646 0.059740782 -0.12352526 1.6545857e-38
0.80572391 0.059590623 -0.12370166 1.0297844e-38
0.80708921 0.059291393 -0.12317786 1.2057121e-38
0.80962658 0.059767723 -0.12335926 1.7105922e-38
0.84311235 0.05917716 -0.12383944 1.6307458e-38
0.72674853 0.060530066 -0.12367332 2.3497628e-38
0.78107762 0.060784519 -0.12307468 1.7548178e-38
0.78569877 0.0605786 -0.12334844 1.8555472e-38
0.7966994 0.06097728 -0.12353522 1.940466e-38
0.80138135 0.060820192 -0.12373498 1.921953e-38
0.80355096 0.06020537 -0.12372139 1.673677e-38
0.80527031 0.060990378 -0.12341291 1.848333e-38
0.8099854 0.060858607 -0.12357119 1.2588695e-38
0.70949227 0.061209738 -0.12331647 1.0866093e-38
0.72639751 0.061583281 -0.12347683 2.2753975e-38
0.77894604 0.061416656 -0.12303141 1.8010615e-38
0.78142345 0.061836094 -0.12327898 1.8654166e-38
0.78355944 0.061207294 -0.12331682 1.9110459e-38
0.78604674 0.061636731 -0.12355402 1.8102065e-38
0.78738868 0.061331958 -0.12306938 1.7177594e-38
0.7992152 0.061435133 -0.12374237 2.3448264e-38
0.80173635 0.061899602 -0.12394467 2.0423817e-38
0.80390704 0.061288059 -0.12393174 2.0146856e-38
0.80699241 0.061778739 -0.12310198 2.3349255e-38
0.81171525 0.061655283 -0.12325263 1.5336528e-38
0.70856297 0.062504768 -0.12383121 1.1050137e-38
0.79624546 0.062365666 -0.12323809 2.2908454e-38
0.79956901 0.062511265 -0.12395146 2.152909e-38
0.80562699 0.062074706 -0.12362358 2.2724689e-38
0.80734956 0.062864706 -0.12331295 2.051137e-38
0.81207454 0.062747791 -0.12346485 1.6898091e-38
0.71006238 0.063374527 -0.1237167 1.2615636e-38
0.72451597 0.063137412 -0.12356308 1.1216949e-38
0.72673488 0.063212126 -0.1238139 1.2797207e-38
0.79659784 0.063436896 -0.1234462 2.1162067e-38
0.80128181 0.063291207 -0.12365127 2.0976632e-38
0.80598354 0.063159034 -0.12383422 2.1342904e-38
0.80770671 0.063950673 -0.12352392 1.9866001e-38
0.81070292 0.063040361 -0.12399507 1.7546377e-38
0.81243384 0.063840315 -0.1236771 1.7644295e-38
0.70966852 0.064543441 -0.12342909 1.3258835e-38
0.72485209 0.064767957 -0.12390137 1.0848166e-38
0.72638333 0.06426698 -0.12361708 1.4147036e-38
0.7969501 0.064508125 -0.12365431 2.005536e-38
0.80163622 0.064368993 -0.12386066 2.0511721e-38
0.81279314 0.064932838 -0.12388936 1.9949185e-38
0.84556174 0.064877823 -0.12387425 1.6032682e-38
0.70874584 0.065714061 -0.12381673 1.2339796e-38
0.72450101 0.065821171 -0.12370488 1.3879434e-38
0.79649401 0.065889955 -0.1233559 1.9866714e-38
0.79865837 0.065284714 -0.12335962 1.9774519e-38
0.83365202 0.065490872 -0.12393543 2.1646949e-38
0.70954454 0.066679895 -0.12310633 1.2431581e-38
0.75905728 0.066076547 -0.12312451 2.347632e-38
0.78967214 0.066646546 -0.1231018 2.0140427e-38
0.79901123 0.066357583 -0.12356806 1.9313899e-38
0.80153394 0.066831872 -0.12377533 2.0323729e-38
0.80370724 0.066233352 -0.12376803 1.9954597e-38
0.81488717 0.066831917 -0.12378186 1.332838e-38
0.70985752 0.067631558 -0.12329122 1.2063158e-38
0.76558572 0.067574471 -0.12348157 1.8379375e-38
0.78154957 0.067722052 -0.12326714 1.7828018e-38
0.78368926 0.067109615 -0.12331119 1.792022e-38
0.79603672 0.067268535 -0.12305683 1.9313899e-38
0.79855371 0.067737758 -0.1232709 2.0140417e-38
0.81524694 0.067926079 -0.12399444 1.7458497e-38
0.81744373 0.067341253 -0.12395421 1.7363007e-38
0.7089256 0.068913519 -0.12380034 1.0128924e-38
0.7659235 0.068601474 -0.1236811 1.8195343e-38
0.78269637 0.068457946 -0.12398776 1.7182649e-38
0.78403509 0.06816119 -0.12351549 1.6998265e-38
0.79638791 0.068336487 -0.12326428 1.9310299e-38
0.79971683 0.068503305 -0.1239849 2.0140417e-38
0.83532917 0.068868652 -0.12353444 1.611772e-38
0.70972288 0.069877699 -0.12309119 1.0036666e-38
0.76626122 0.069628477 -0.12388062 1.8196413e-38
0.78223908 0.069818646 -0.12367445 1.7551043e-38
0.78438091 0.069212765 -0.12371978 1.7549286e-38
0.7895627 0.069075122 -0.12300208 1.6359343e-38
0.7967391 0.069404453 -0.12347177 1.9310299e-38
0.81478786 0.069319189 -0.12371057 2.3455535e-38
0.81616521 0.069036543 -0.12317768 2.3455096e-38
0.84680283 0.069728881 -0.12321115 1.5848651e-38
0.70847827 0.070206389 -0.12341356 9.3913594e-39
0.78010058 0.070424661 -0.12362292 1.7826204e-38
0.78258383 0.070866942 -0.12387812 1.7827989e-38
0.78472674 0.070264325 -0.12392408 2.0683937e-38
0.78991067 0.070133239 -0.12320766 1.8941811e-38
0.79844689 0.070184261 -0.12318084 2.0140427e-38
0.7996105 0.070951432 -0.12389523 2.0601765e-38
0.81514716 0.070411712 -0.12392282 2.1625271e-38
0.8165251 0.070130706 -0.12339023 2.1624562e-38
0.84717619 0.070863992 -0.12343168 1.5756455e-38
0.70879018 0.071154773 -0.1235978 9.4824438e-39
0.74188125 0.071156219 -0.1230264 1.8376153e-38
0.77796531 0.071030766 -0.12356526 1.7736156e-38
0.78044415 0.071469679 -0.12382594 1.8103151e-38
0.78426802 0.071623385 -0.12361196 1.8389772e-38
0.78560925 0.071331561 -0.12313908 1.9038754e-38
0.78810525 0.071787193 -0.12338141 1.9865956e-38
0.79025865 0.07119137 -0.12341323 2.0785724e-38
0.79195559 0.071961135 -0.12313426 1.9685165e-38
0.79411602 0.071368739 -0.12315595 1.9501527e-38
0.80132294 0.071737885 -0.1236009 1.959048e-38
0.81688488 0.071224868 -0.12360281 2.1717116e-38
0.84754944 0.071999103 -0.12365219 1.5756455e-38
0.70834124 0.072442755 -0.12321004 1.0035259e-38
0.77830791 0.072072506 -0.12376764 1.828933e-38
0.78461337 0.072673321 -0.12381595 1.6361468e-38
0.78595507 0.072383136 -0.12334338 1.7932408e-38
0.78845215 0.072842047 -0.12358636 1.7468584e-38
0.79060662 0.072249487 -0.12361878 1.9127029e-38
0.79915035 0.072323427 -0.12359643 1.8390165e-38
0.81724477 0.072319016 -0.12381536 1.950696e-38
0.70865256 0.0733895 -0.12339398 9.9455841e-39
0.75738388 0.073438212 -0.12313119 1.8196078e-38
0.76813638 0.073751792 -0.12371254 1.5262e-38
0.76945806 0.073456153 -0.12327293 1.6178911e-38
0.77865052 0.073114246 -0.12397 1.6270404e-38
0.7863009 0.073434711 -0.12354767 1.5257343e-38
0.78879905 0.073896885 -0.12379128 1.5255529e-38
0.79095459 0.073307604 -0.12382436 1.5623236e-38
0.79230416 0.073020905 -0.12334013 1.6089175e-38
0.7948153 0.073494822 -0.12356898 1.6173892e-38
0.7961694 0.073209867 -0.12307733 1.7188417e-38
0.79950213 0.073393017 -0.12380421 1.5624294e-38
0.80086184 0.073109865 -0.12330368 1.7101198e-38
0.81284916 0.07346268 -0.12387833 1.6545904e-38
0.8456732 0.073681802 -0.12398145 1.5848648e-38
0.70896387 0.074336246 -0.12357789 8.5626497e-39
0.75771677 0.074450478 -0.12332782 1.4619122e-38
0.76602036 0.074358463 -0.12361941 1.4803516e-38
0.7684741 0.074778795 -0.12391207 1.5169804e-38
0.76979637 0.074484795 -0.12347278 1.5533542e-38
0.78067124 0.074909002 -0.1239149 1.4161776e-38
0.78914595 0.074951738 -0.1239962 1.4250384e-38
0.79265261 0.074080661 -0.12354603 1.5437774e-38
0.79516482 0.074557856 -0.12377551 1.6081696e-38
0.79651964 0.07427454 -0.12328419 1.5805481e-38
0.83774316 0.07448718 -0.12356874 1.6574331e-38
0.70851284 0.075617656 -0.12318888 7.5488691e-39
0.75804967 0.075462729 -0.12352449 1.6279003e-38
0.766357 0.075382188 -0.12381831 1.6002059e-38
0.76933599 0.075821102 -0.12314543 1.3063306e-38
0.77853274 0.075502008 -0.12385315 1.2968605e-38
0.78699255 0.07553786 -0.12395626 1.3149387e-38
0.79300117 0.075140432 -0.12375191 1.5622166e-38
0.79551446 0.07562089 -0.12398204 1.3789015e-38
0.81274366 0.075928688 -0.12380138 1.3514592e-38
0.83811164 0.075607538 -0.12378639 1.6205907e-38
0.70882368 0.076562762 -0.12337247 7.8254574e-39
0.76589674 0.076713622 -0.12348691 1.3535103e-38
0.76721621 0.076421171 -0.12305409 1.3162354e-38
0.76967382 0.07684809 -0.12334496 1.5921011e-38
0.78653038 0.076888695 -0.12364411 1.6560625e-38
0.78868389 0.076305836 -0.12368616 1.5909906e-38
0.79334962 0.076200187 -0.12395778 1.3062953e-38
0.79505146 0.076979846 -0.12367761 1.6923667e-38
0.79721987 0.076403886 -0.12369785 1.507835e-38
0.72762561 0.077544227 -0.12306729 1.0314389e-38
0.76755285 0.077444896 -0.12325299 1.5190658e-38
0.77001154 0.077875108 -0.12354448 1.280437e-38
0.7713362 0.07758604 -0.1231046 1.3353213e-38
0.78687561 0.077938631 -0.12384808 1.36298e-38
0.788221 0.077656657 -0.12337556 1.3626537e-38
0.79037809 0.07707715 -0.12341371 1.3161612e-38
0.79288661 0.077555865 -0.12365118 1.6197603e-38
0.79675615 0.077762812 -0.123395 1.3441443e-38
0.80835891 0.077059686 -0.1238341 1.3066174e-38
0.70868123 0.078782707 -0.12316582 9.7633789e-39
0.72794449 0.078513905 -0.1232557 9.5786219e-39
0.7654354 0.078041762 -0.12315491 1.316632e-38
0.7678895 0.078468621 -0.12345186 1.2526692e-38
0.7724756 0.078311965 -0.123831 1.298443e-38
0.77380347 0.078024611 -0.12338689 1.4269052e-38
0.79072499 0.078132004 -0.12361863 1.4636743e-38
0.79323459 0.078613997 -0.12385675 1.353832e-38
0.79458761 0.078335494 -0.12337258 1.3538323e-38
0.80789423 0.078428283 -0.12354088 1.5371064e-38
0.83801484 0.078127325 -0.12373689 1.6950657e-38
0.70899153 0.07972616 -0.1233491 9.7640669e-39
0.72463191 0.079449028 -0.12339529 1.0131424e-38
0.72589934 0.079142079 -0.12304774 9.9474002e-39
0.72826338 0.079483569 -0.12344408 9.9470443e-39
0.74052387 0.079347953 -0.12311396 9.5786219e-39
0.76577103 0.079062209 -0.12335315 1.1602973e-38
0.77201283 0.079643324 -0.12350425 1.1973538e-38
0.77334023 0.079357594 -0.12306193 1.2615683e-38
0.77581263 0.07980442 -0.12334117 1.2339079e-38
0.79107189 0.079186842 -0.12382355 1.261926e-38
0.79493606 0.079395264 -0.12357846 1.2431977e-38
0.83838272 0.079246059 -0.12395424 1.5941562e-38
0.70805597 0.080982074 -0.12384388 1.0132129e-38
0.72494912 0.080413789 -0.12358269 1.0039227e-38
0.72621715 0.080108479 -0.12323549 1.0039597e-38
0.72780526 0.080771253 -0.12307325 9.9470317e-39
0.77448213 0.080088437 -0.12378782 1.2339096e-38
0.77615249 0.08083798 -0.12354198 1.1789875e-38
0.79528463 0.08045502 -0.12378433 1.1513278e-38
0.70884639 0.081937939 -0.12314084 8.8432205e-39
0.72290879 0.081038892 -0.12336332 9.7637194e-39
0.724491 0.08169663 -0.12320784 9.672237e-39
0.72653496 0.081074879 -0.12342325 9.9481037e-39
0.72812361 0.081739292 -0.1232613 1.0039227e-38
0.74246156 0.08102347 -0.1231176 1.1054453e-38
0.74615878 0.081111848 -0.1230872 1.169839e-38
0.76352644 0.081991449 -0.12311038 1.1422515e-38
0.77268934 0.081700608 -0.12390393 1.1699825e-38
0.77482152 0.081120357 -0.1239883 1.1882418e-38
0.77649248 0.081871524 -0.12374279 1.234269e-38
0.77782571 0.081590831 -0.1232937 1.2251199e-38
0.84539127 0.081290081 -0.12385628 1.5756452e-38
0.70915616 0.082879767 -0.12332383 4.8788084e-39
0.71835077 0.082275152 -0.12380445 8.8439211e-39
0.72118688 0.08262229 -0.12332395 8.3872688e-39
0.72230005 0.082980216 -0.12307373 1.3179309e-38
0.72338307 0.082481116 -0.12364349 8.7520856e-39
0.72480774 0.082659751 -0.12339497 9.5800414e-39
0.72607613 0.082357675 -0.12304994 9.7637138e-39
0.72844195 0.082707331 -0.12344939 9.9477505e-39
0.72971493 0.082407042 -0.123097 9.6718839e-39
0.73942399 0.082910806 -0.12351322 1.0869708e-38
0.74071109 0.082615778 -0.12313864 1.0777866e-38
0.74278641 0.082011163 -0.12330946 1.0962257e-38
0.74311119 0.082998857 -0.12350133 1.0409099e-38
0.74440306 0.082705587 -0.12311938 1.1238842e-38
0.74648523 0.082104459 -0.12328002 1.1423601e-38
0.74810827 0.082805529 -0.12308353 1.0962607e-38
0.75182664 0.082915619 -0.12303108 1.1147024e-38
0.77683234 0.082905084 -0.12394357 1.1699825e-38
0.71663511 0.083852232 -0.12374839 3.9583389e-39
0.71866477 0.083230078 -0.12398997 5.3455487e-39
0.72023964 0.083882719 -0.12384436 4.3292513e-39
0.72150207 0.083580494 -0.12351012 6.2664106e-39
0.72434813 0.083937675 -0.12301916 9.3041804e-39
0.7263934 0.083322436 -0.1232374 9.672237e-39
0.7287603 0.083675355 -0.12363747 9.5789694e-39
0.73003381 0.083376721 -0.12328538 9.4874927e-39
0.73368764 0.083441079 -0.12331679 9.7640992e-39
0.73974717 0.083893567 -0.12370417 1.0502724e-38
0.74103487 0.083600193 -0.12332988 1.0502373e-38
0.74343598 0.083986536 -0.12369323 1.059385e-38
0.74472845 0.08369492 -0.12331158 1.0409083e-38
0.74681163 0.083097056 -0.12347287 1.0778231e-38
0.74843526 0.083799779 -0.12327668 1.0409822e-38
0.75052536 0.083205357 -0.12342784 1.0869361e-38
0.75215524 0.083914772 -0.12322518 1.059385e-38
0.76254416 0.083291426 -0.12372807 1.1515446e-38
0.76386046 0.083006978 -0.12330768 1.1790939e-38
0.71335518 0.084778607 -0.1238198 4.4192568e-39
0.72163427 0.084301949 -0.12379627 1.0319795e-38
0.72308183 0.084238157 -0.12335926 8.2921991e-39
0.72483277 0.084765494 -0.12363839 1.3179306e-38
0.72544122 0.084585994 -0.12376919 9.3041804e-39
0.72671068 0.084287196 -0.12342483 9.5800414e-39
0.72704613 0.0848791 -0.12386608 1.3179662e-38
0.72907865 0.084643394 -0.12382552 1.0131074e-38
0.7303527 0.084346384 -0.12347376 1.0039241e-38
0.73162854 0.084049389 -0.12311891 8.8453729e-39
0.73528856 0.084120452 -0.12314388 1.0961904e-38
0.73639321 0.084788591 -0.12388846 1.0317606e-38
0.73767674 0.084495068 -0.12352192 1.0409808e-38
0.74505377 0.084684253 -0.12350377 1.0133594e-38
0.74713802 0.084089667 -0.12366569 9.9481247e-39
0.74876219 0.084794015 -0.12346986 1.0041398e-38
0.75006151 0.084505841 -0.12307805 1.0777165e-38
0.75248384 0.084913924 -0.12341928 1.0409822e-38
0.75458205 0.084326208 -0.12356091 1.0502017e-38
0.75588858 0.084039867 -0.12315714 1.0869361e-38
0.75701427 0.084744304 -0.12389174 1.0131796e-38
0.75832391 0.084459662 -0.12348363 1.0684616e-38
0.75963521 0.08417508 -0.1230725 1.0869726e-38
0.72213227 0.085496902 -0.12388244 9.3027609e-39
0.72339749 0.085198 -0.12354574 9.0297641e-39
0.72669023 0.085947037 -0.12366685 1.3179662e-38
0.73067158 0.085316062 -0.12366214 1.1422534e-38
0.73194796 0.085020691 -0.12330762 1.0504534e-38
0.73432863 0.085390255 -0.12369546 1.0503074e-38
0.74537909 0.085673586 -0.123696 1.0041398e-38
0.74746448 0.085082263 -0.12385854 9.763732e-39
0.74908918 0.085788265 -0.12366301 1.0409089e-38
0.7503891 0.08550173 -0.12327152 1.059385e-38
0.71020126 -0.056036055 -0.12243807 3.2275953e-39
0.79262137 -0.056640089 -0.12222609 1.6856309e-38
0.71053791 -0.055012345 -0.12263697 3.4145229e-39
0.79299462 -0.055504978 -0.1224466 1.9705746e-38
0.77528334 -0.054172158 -0.12258622 2.350446e-38
0.77659845 -0.054631829 -0.12202665 2.3496156e-38
0.79470539 -0.054819167 -0.12207398 1.8054486e-38
0.71087456 -0.053988606 -0.12283584 4.7974574e-39
0.77322364 -0.053236187 -0.12265447 2.350592e-38
0.77696419 -0.053519666 -0.12224272 2.3503033e-38
0.79127586 -0.05345431 -0.12277931 2.1821534e-38
0.7117337 -0.052949607 -0.12207165 5.9891482e-39
0.71203309 -0.052616835 -0.12296468 9.2156099e-39
0.71321207 -0.052207857 -0.12261361 1.2532886e-38
0.71695203 -0.052904129 -0.12284121 1.5582198e-38
0.7203818 -0.052642703 -0.12287113 1.3835172e-38
0.70831376 -0.051944137 -0.12271455 6.3615391e-39
0.70948786 -0.051531702 -0.12237075 5.0729625e-39
0.7107513 -0.051273689 -0.12236422 6.8210809e-39
0.71171099 -0.051650435 -0.12278441 7.4689769e-39
0.71288943 -0.051239818 -0.12243304 1.1706722e-38
0.7143926 -0.05179897 -0.12225941 1.6408364e-38
0.71662778 -0.051931202 -0.12265971 1.5399264e-38
0.7185427 -0.051093936 -0.1228728 1.5030491e-38
0.72005588 -0.051664829 -0.12268868 1.429579e-38
0.72124517 -0.051259577 -0.12231937 1.5585087e-38
0.74122214 -0.051290184 -0.12269169 1.9449703e-38
0.77284062 -0.051654249 -0.122381 2.3508444e-38
0.77451706 -0.051005155 -0.12204304 2.3509524e-38
0.84918797 -0.051968187 -0.1224066 1.6492565e-38
0.71117532 -0.050406009 -0.12290317 6.542685e-39
0.71256679 -0.050271779 -0.12225243 1.1798918e-38
0.71406943 -0.050829291 -0.12207851 1.6686725e-38
0.71630347 -0.050958246 -0.12247822 1.5860242e-38
0.71821737 -0.050117701 -0.12269068 1.6229034e-38
0.71972996 -0.050686985 -0.12250626 1.4938643e-38
0.72091872 -0.050280094 -0.12213662 1.5492886e-38
0.72316891 -0.050425977 -0.12251726 1.5216658e-38
0.72542435 -0.050578564 -0.12289286 1.7149867e-38
0.73617387 -0.050883591 -0.12298143 1.8346975e-38
0.73738348 -0.050487399 -0.12257734 1.9173839e-38
0.73859465 -0.050091356 -0.12217006 1.9819196e-38
0.73967236 -0.05067715 -0.12291548 1.9635196e-38
0.77320421 -0.050548613 -0.12259582 2.3508804e-38
0.77694583 -0.050823987 -0.12218875 2.3509874e-38
0.78880203 -0.050945461 -0.1226249 2.3113677e-38
0.84958553 -0.050759375 -0.12264144 1.658512e-38
0.71789199 -0.049141467 -0.12250856 1.7609407e-38
0.71940404 -0.049709111 -0.12232384 1.6505609e-38
0.72284132 -0.049443185 -0.12233391 1.5585788e-38
0.72509575 -0.049592495 -0.12270892 1.7149867e-38
0.73584032 -0.049882799 -0.12279472 1.9268571e-38
0.73779058 -0.049063385 -0.12294939 2.00036e-38
0.7735678 -0.049443007 -0.1228106 2.2305212e-38
0.77488124 -0.049897879 -0.12225816 2.3505204e-38
0.77731109 -0.049713433 -0.12240449 2.3508435e-38
0.81638396 -0.049329937 -0.12230879 2.1360068e-38
0.71487582 -0.04801625 -0.12287036 1.7608309e-38
0.72132331 -0.048868805 -0.1225253 1.6415201e-38
0.72324562 -0.048028708 -0.12272045 1.6323353e-38
0.72476709 -0.048606455 -0.12252495 1.6873993e-38
0.72702563 -0.048759222 -0.1228942 1.7701956e-38
0.73396671 -0.048282325 -0.12282321 2.0098322e-38
0.73550671 -0.048882008 -0.12260804 1.9636618e-38
0.73745596 -0.048059314 -0.12276208 2.0464563e-38
0.73900199 -0.048665732 -0.12254024 2.166275e-38
0.77524531 -0.048790634 -0.12247327 2.3502683e-38
0.79258299 -0.04845047 -0.12211654 2.3476533e-38
0.81676638 -0.04816699 -0.12253472 2.1267873e-38
0.71113724 -0.047853708 -0.12277034 7.462479e-39
0.71264654 -0.04789719 -0.12246934 1.161524e-38
0.71455157 -0.047043294 -0.12268886 1.7608309e-38
0.72172678 -0.047454268 -0.12291339 1.7517577e-38
0.72517109 -0.047188699 -0.12290928 1.7703394e-38
0.7266959 -0.047769874 -0.12270966 1.7793423e-38
0.73517317 -0.047881186 -0.12242132 2.0834803e-38
0.73712134 -0.047055244 -0.12257478 2.1478713e-38
0.77485931 -0.047215283 -0.12220007 2.3505519e-38
0.78802884 -0.047768891 -0.12210214 2.3490339e-38
0.79048896 -0.047547907 -0.12222153 2.3493094e-38
0.8171488 -0.047004044 -0.12276065 2.090594e-38
0.8185159 -0.04743135 -0.12213007 2.0718618e-38
0.85139501 -0.047114909 -0.12220877 1.6125959e-38
0.70964873 -0.046795458 -0.12281334 6.546638e-39
0.71082366 -0.046376616 -0.12246203 8.1121659e-39
0.71173328 -0.046825647 -0.1224886 8.0160102e-39
0.72139925 -0.046471477 -0.12273005 1.9453686e-38
0.72410977 -0.046634346 -0.12215707 1.8254777e-38
0.7263661 -0.046780556 -0.1225251 1.8070369e-38
0.72862768 -0.046933472 -0.12288806 1.9174561e-38
0.73557848 -0.046453834 -0.12279436 2.1754922e-38
0.73678666 -0.046051174 -0.12238744 2.2122635e-38
0.73833156 -0.046654314 -0.12216499 2.2585055e-38
0.77354586 -0.046763659 -0.12275034 2.1381438e-38
0.78839827 -0.046645254 -0.12232041 2.3502223e-38
0.8188988 -0.046266764 -0.1223563 2.3487367e-38
0.70932662 -0.045829058 -0.12263307 7.0980069e-39
0.71050107 -0.045408577 -0.12228146 8.2043349e-39
0.71232927 -0.045797586 -0.12220684 9.6730007e-39
0.72226131 -0.045075446 -0.12216949 2.0557843e-38
0.72332019 -0.045624822 -0.12292239 1.9730626e-38
0.7245127 -0.045213312 -0.12254074 2.0190885e-38
0.72603637 -0.045791209 -0.12234053 1.9174911e-38
0.72829688 -0.045940876 -0.12270287 1.9543345e-38
0.73023069 -0.045101315 -0.12287438 1.9636247e-38
0.73524439 -0.045451403 -0.12260738 2.2677238e-38
0.73645198 -0.045047104 -0.12220016 2.3228983e-38
0.77148581 -0.045843929 -0.12280619 2.2025029e-38
0.7912302 -0.045294076 -0.12265939 2.350086e-38
0.81753135 -0.045841068 -0.12298658 2.3026799e-38
0.81928182 -0.045102179 -0.12258255 2.036152e-38
0.70900452 -0.044862658 -0.12245277 7.2823982e-39
0.71266484 -0.044777155 -0.12240508 9.857392e-39
0.72147298 -0.044067621 -0.12293357 2.083479e-38
0.72989881 -0.044105411 -0.12268859 2.0187972e-38
0.7314319 -0.04469347 -0.12247756 2.147871e-38
0.73840106 -0.044214785 -0.12234604 2.3509886e-38
0.77109873 -0.044276714 -0.12252831 2.2578203e-38
0.77483547 -0.044539273 -0.12214071 2.3508082e-38
0.80248225 -0.044750154 -0.12249413 2.0630519e-38
0.82181108 -0.044799715 -0.12263903 2.1279083e-38
0.70940328 -0.043449461 -0.12285221 7.2823982e-39
0.71090055 -0.04399544 -0.12267929 8.4812819e-39
0.71218193 -0.043414265 -0.12219813 1.0688592e-38
0.72266293 -0.043652713 -0.12255451 2.083479e-38
0.72836828 -0.043520749 -0.12289706 2.1295761e-38
0.73183453 -0.04326278 -0.12285313 2.1662023e-38
0.79960418 -0.043417841 -0.1221436 1.9802921e-38
0.80209124 -0.043160379 -0.12224233 1.9528913e-38
0.81966484 -0.043937594 -0.12280881 1.8333216e-38
0.82219505 -0.043631852 -0.12286592 1.8061378e-38
0.84999323 -0.04386586 -0.12291804 1.6033758e-38
0.70908058 -0.042481422 -0.12267163 7.4671496e-39
0.71025413 -0.042056084 -0.12231752 8.5716782e-39
0.71254873 -0.042195857 -0.12249479 1.0871543e-38
0.72306341 -0.042226732 -0.12293884 2.0648594e-38
0.7245847 -0.042799681 -0.12273929 2.1939686e-38
0.72803694 -0.042526484 -0.12271157 2.2492139e-38
0.73150152 -0.042263627 -0.12266675 2.3229709e-38
0.73725867 -0.042176127 -0.12293997 2.3507722e-38
0.76698804 -0.042443454 -0.1226171 2.3509883e-38
0.77071083 -0.042712837 -0.12224981 2.3405801e-38
0.776878 -0.042776316 -0.12201911 2.3509884e-38
0.79044986 -0.042133957 -0.12213653 2.3505899e-38
0.7950182 -0.042782664 -0.12215114 2.3499781e-38
0.79615343 -0.042102277 -0.12284863 2.3509867e-38
0.79825962 -0.042984992 -0.12273663 2.3490029e-38
0.80323315 -0.042466819 -0.12293774 1.8514402e-38
0.71295714 -0.041217506 -0.12246948 1.050167e-38
0.72273421 -0.041239053 -0.1227546 2.009542e-38
0.72425497 -0.041810364 -0.12255475 2.1478345e-38
0.72650957 -0.041946828 -0.1229178 2.1570909e-38
0.72996819 -0.041677177 -0.12287965 2.2767651e-38
0.73692292 -0.041168779 -0.12275207 2.3508441e-38
0.76734734 -0.041350901 -0.12282935 2.3500152e-38
0.79081941 -0.04101032 -0.12235484 2.3509879e-38
0.79291713 -0.041896522 -0.12225604 2.350554e-38
0.79863286 -0.041849881 -0.12295714 2.3221407e-38
0.80035186 -0.041144371 -0.12258527 2.0913637e-38
0.80495977 -0.041752964 -0.12255821 2.0444011e-38
0.71329224 -0.040198684 -0.1226674 1.0132887e-38
0.72121596 -0.04067111 -0.12295195 1.9636613e-38
0.72240502 -0.040251374 -0.12257034 1.991283e-38
0.72392523 -0.040821016 -0.12237018 2.1386149e-38
0.73561513 -0.040584162 -0.12249163 2.3509886e-38
0.77274406 -0.040963143 -0.12213489 2.3497273e-38
0.78872502 -0.040123999 -0.1224474 2.3509886e-38
0.79328775 -0.040769607 -0.12247497 2.3509865e-38
0.8007257 -0.040007621 -0.12280613 2.3491845e-38
0.80284107 -0.040880352 -0.12268528 2.0906066e-38
0.80533576 -0.040609688 -0.12278032 2.3025489e-38
0.83197713 -0.04073146 -0.12281609 1.6400062e-38
0.70883131 -0.039123982 -0.12270835 8.2039845e-39
0.72088736 -0.039685041 -0.12276801 1.9636613e-38
0.72207582 -0.039263666 -0.1223861 1.9820634e-38
0.7258479 -0.039961606 -0.12254745 2.1569459e-38
0.73504496 -0.039566487 -0.12278813 2.3509886e-38
0.73625141 -0.039154083 -0.12237623 2.3509886e-38
0.7420342 -0.039075941 -0.12260368 2.3509886e-38
0.77478123 -0.039206862 -0.12201822 2.3506981e-38
0.79118896 -0.039886653 -0.12257311 2.3509157e-38
0.79365838 -0.039642692 -0.1226939 2.3509886e-38
0.79613328 -0.039392084 -0.12280983 2.3509886e-38
0.80321598 -0.039740324 -0.12290674 2.3493664e-38
0.83158195 -0.039123982 -0.12258622 1.9257032e-38
0.7107234 -0.038240433 -0.12292865 8.93903e-39
0.71291184 -0.038684845 -0.12233439 1.0132512e-38
0.7205587 -0.038698971 -0.12258404 1.9820281e-38
0.72970235 -0.038243204 -0.12288308 2.3505921e-38
0.7727145 -0.038306773 -0.12207019 2.0441467e-38
0.77833247 -0.038353801 -0.12287831 2.3491059e-38
0.7915585 -0.038763046 -0.12279141 2.3509161e-38
0.79326522 -0.038069218 -0.12243274 2.3509886e-38
0.82941651 -0.038285136 -0.12277314 2.0728918e-38
0.71189833 -0.037810326 -0.12256733 1.1148481e-38
0.71227109 -0.037181854 -0.12247838 1.0225436e-38
0.7224735 -0.037829518 -0.12276894 2.0003224e-38
0.7293694 -0.037244052 -0.12269667 2.3230059e-38
0.73510903 -0.037115425 -0.12297016 2.3509886e-38
0.7553333 -0.037158549 -0.12283322 2.3509886e-38
0.77550519 -0.037005454 -0.12244591 2.2195711e-38
0.7792604 -0.037231714 -0.12205297 2.3499398e-38
0.782462 -0.03746444 -0.12268823 2.3509881e-38
0.78378761 -0.037899464 -0.12212878 2.3509886e-38
0.83196926 -0.037946284 -0.12281501 2.1838509e-38
0.71569622 -0.036043942 -0.12297955 1.926459e-38
0.75498825 -0.036123365 -0.1226401 2.3509886e-38
0.75731218 -0.036327749 -0.12291762 2.3509886e-38
0.76859128 -0.036506236 -0.1221557 2.2376082e-38
0.78038108 -0.036577761 -0.12275618 2.3506628e-38
0.78282726 -0.036353886 -0.12290397 2.3509881e-38
0.78415334 -0.036787301 -0.12234485 2.3509884e-38
0.79363537 -0.036943913 -0.12265134 2.3509883e-38
0.79859209 -0.036426246 -0.12288326 2.3509886e-38
0.71536922 -0.03506282 -0.12279651 1.9080198e-38
