# .PCD v0.7 - Point Cloud Data file format
VERSION 0.7
FIELDS x y z rgb
SIZE 4 4 4 4
TYPE F F F F
COUNT 1 1 1 1
WIDTH 1032
HEIGHT 1
VIEWPOINT 0 0 0 1 0 0 0
POINTS 1032
DATA ascii
0.98461598 0.44641137 0.11838746 4.2038954e-45
0.98412406 0.44788712 0.11866274 4.2038954e-45
0.98012292 0.44834876 0.11813208 4.2038954e-45
0.97963268 0.44981968 0.11840647 1.5414283e-44
0.9922058 0.37094319 0.11970791 0
0.99009079 0.37530172 0.11912695 1.8404094e-40
0.98912996 0.37818456 0.11966476 2.8866748e-42
0.99121541 0.37829822 0.11916775 9.5082305e-41
0.98864955 0.37962592 0.11993363 1.8202867e-42
0.98701489 0.38254303 0.11908376 1.460153e-42
0.98653448 0.38398445 0.11935267 1.098618e-42
0.98605406 0.38542587 0.11962157 1.44614e-42
0.98282617 0.38676155 0.11900124 1.44614e-42
0.98557365 0.38686728 0.11989045 1.44614e-42
0.98186755 0.38963783 0.1195378 1.44614e-42
0.98393899 0.38978434 0.11904058 1.44614e-42
0.98456812 0.3942585 0.1193507 7.258726e-43
0.98408663 0.3957032 0.1196202 3.7835059e-43
0.98598671 0.3995446 0.11955002 3.7835059e-43
0.98709023 0.40259528 0.1195946 3.7835059e-43
0.986606 0.4040482 0.11986566 3.7835059e-43
0.9860549 0.41005576 0.11905348 3.7835059e-43
0.9855696 0.41151184 0.11932513 3.7835059e-43
0.98666281 0.41458881 0.11937144 3.7835059e-43
0.98617643 0.41604829 0.11964372 3.7835059e-43
0.98569 0.41750771 0.11991596 1.821688e-44
0.98246223 0.4188273 0.1192815 1.821688e-44
0.98197693 0.42028344 0.11955315 1.821688e-44
0.98306209 0.42338014 0.11959997 5.6051939e-45
0.98257565 0.42483962 0.11987224 5.6051939e-45
0.98628962 0.44342458 0.1192576 1.5414283e-44
0.9857977 0.44490039 0.11953291 1.5414283e-44
0.98130077 0.44684291 0.11927375 4.2038954e-45
0.98314029 0.4508388 0.11921337 4.2038954e-45
0.9842006 0.45400119 0.11926609 4.2038954e-45
0.99011558 0.37083942 0.12020364 0
0.99124497 0.37382603 0.12024572 4.2038954e-45
0.99076456 0.37526739 0.1205146 5.5282345e-40
0.99028414 0.37670887 0.12078351 1.8693041e-40
0.98656738 0.37950242 0.12042883 1.098618e-42
0.98608804 0.38094056 0.12069711 1.098618e-42
0.98720831 0.38395017 0.12074032 1.098618e-42
0.98509324 0.38830864 0.12015936 1.44614e-42
0.98461282 0.38975012 0.12042823 7.258726e-43
0.98413241 0.39119148 0.12069714 7.258726e-43
0.98524344 0.39422417 0.12074152 7.258726e-43
0.98666435 0.39951015 0.12094557 3.7835059e-43
0.98612177 0.40550113 0.12013668 3.657389e-43
0.98722094 0.40856493 0.12018371 3.657389e-43
0.98673558 0.41002107 0.12045535 3.7835059e-43
0.98625028 0.41147721 0.12072697 1.821688e-44
0.98576492 0.41293335 0.12099862 1.821688e-44
0.98314291 0.41879261 0.12068334 1.6815582e-44
0.98520356 0.41896713 0.12018824 1.6815582e-44
0.98265761 0.42024875 0.12095502 1.821688e-44
0.98512709 0.43941844 0.12073386 4.2038954e-45
0.98481399 0.44785202 0.12008354 4.2038954e-45
0.98432213 0.44932783 0.12035885 4.2038954e-45
0.98383021 0.45080364 0.12063417 4.2038954e-45
0.99078786 0.3708052 0.12158814 0
0.99030852 0.37224334 0.12185642 1.4012985e-45
0.99143839 0.37523311 0.12190226 2.7623797e-40
0.98819828 0.37659198 0.12127677 2.1804204e-42
0.987719 0.37803006 0.12154505 1.8202867e-42
0.98723966 0.3794682 0.12181333 1.8202867e-42
0.98672789 0.38539159 0.12100923 1.44614e-42
0.98624748 0.38683295 0.12127811 1.0860063e-42
0.98576707 0.38827443 0.12154701 9.1845305e-41
0.98528665 0.38971579 0.12181589 7.0064923e-45
0.98640031 0.39274508 0.12186283 7.258726e-43
0.98476195 0.39566886 0.12101102 3.7835059e-43
0.9861812 0.40095973 0.12121597 1.821688e-44
0.98569804 0.40240932 0.1214864 1.9618179e-44
0.98680097 0.40546656 0.12153536 3.657389e-43
0.98790163 0.40853029 0.12158555 3.657389e-43
0.98741627 0.4099865 0.1218572 1.821688e-44
0.98527962 0.41438955 0.12127027 1.821688e-44
0.98479426 0.41584569 0.12154192 1.6815582e-44
0.98430896 0.41730183 0.12181357 1.6815582e-44
0.98374432 0.42334545 0.121005 5.6051939e-45
0.98325789 0.42480487 0.12127724 7.0064923e-45
0.9851262 0.4287349 0.12121883 1.821688e-44
0.98501199 0.44929272 0.12177962 4.2038954e-45
0.99307305 0.372316 0.12275216 0
0.98887056 0.37655777 0.12266129 9.4025726e-41
0.99095798 0.37667453 0.12217116 3.7097275e-40
0.98839122 0.37799585 0.12292957 9.4734783e-41
0.98676032 0.38090634 0.12208161 1.460153e-42
0.98628104 0.38234448 0.12234992 1.460153e-42
0.9858017 0.38378263 0.1226182 1.44614e-42
0.98532236 0.38522077 0.12288648 1.44614e-42
0.98432583 0.39259863 0.1223537 7.258726e-43
0.98543733 0.39563447 0.12240183 3.7835059e-43
0.98495579 0.39707917 0.12267137 3.7835059e-43
0.98844856 0.40252626 0.122392 3.7835059e-43
0.98796433 0.40397912 0.12266305 3.7835059e-43
0.9874801 0.40543199 0.12293407 3.657389e-43
0.98858231 0.40849566 0.12298742 3.657389e-43
0.98693097 0.41144258 0.12212884 1.821688e-44
0.98644567 0.41289878 0.12240049 1.821688e-44
0.9875409 0.41597885 0.12245375 1.821688e-44
0.98705447 0.41743827 0.12272599 5.6051939e-45
0.98382366 0.41875803 0.12208521 1.6815582e-44
0.9833383 0.42021418 0.12235686 1.5414283e-44
0.98442656 0.4233107 0.12241 4.2038954e-45
0.98394012 0.42477012 0.12268227 5.6051939e-45
0.98345369 0.4262296 0.12295452 1.6815582e-44
0.9909808 0.37220919 0.12324095 1.4012985e-45
0.99050146 0.37364727 0.12350923 2.7623797e-40
0.99002218 0.37508547 0.12377751 2.1804204e-42
0.98550475 0.37708688 0.12352774 1.460153e-42
0.98502707 0.37852013 0.12379512 1.098618e-42
0.98484302 0.38665891 0.12315476 1.098618e-42
0.98596042 0.38968158 0.12320358 1.098618e-42
0.98340511 0.39097333 0.12395963 3.657389e-43
0.98548001 0.39112294 0.12347248 7.258726e-43
0.98611265 0.39560008 0.12379265 3.7835059e-43
0.98801965 0.39944124 0.12373668 3.7835059e-43
0.98912776 0.40249169 0.12379071 3.7835059e-43
0.98809701 0.40995181 0.12325907 3.657389e-43
0.98761165 0.41140795 0.12353072 4.2038954e-45
0.98712635 0.41286409 0.12380236 5.6051939e-45
0.98822308 0.4159441 0.12385875 7.0064923e-45
0.98498964 0.4172672 0.12321541 5.6051939e-45
0.98450434 0.41872334 0.12348709 1.5414283e-44
0.98401898 0.42017949 0.1237587 1.5414283e-44
0.98510879 0.42327601 0.12381503 4.2038954e-45
0.99213243 0.37073684 0.12435716 0
0.99165308 0.37217498 0.12462544 0
0.99117374 0.37361306 0.12489372 7.0064923e-45
0.98665243 0.37561953 0.12464017 1.8202867e-42
0.98954284 0.37652361 0.12404579 9.4734783e-41
0.98617476 0.37705278 0.12490752 3.7835059e-43
0.98247015 0.37981194 0.12454802 1.098618e-42
0.9845494 0.37995332 0.12406248 1.098618e-42
0.983594 0.38281977 0.12459722 3.7835059e-43
0.98311633 0.38425303 0.12486458 3.0828566e-44
0.98503602 0.38806283 0.12480757 3.0828566e-44
0.98864347 0.40394455 0.12406176 3.7835059e-43
0.98815924 0.40539742 0.12433279 3.657389e-43
0.989263 0.40846103 0.12438926 3.657389e-43
0.9887777 0.40991724 0.12466091 3.657389e-43
0.9882924 0.41137332 0.12493256 3.657389e-43
0.98615569 0.41577643 0.12434566 5.6051939e-45
0.98567039 0.41723257 0.12461731 4.2038954e-45
0.98518503 0.41868877 0.12488893 1.5414283e-44
0.98462236 0.42473543 0.12408727 4.2038954e-45
0.98413593 0.42619491 0.12435955 5.6051939e-45
0.98600721 0.43012953 0.12431148 5.6051939e-45
0.98708987 0.43324739 0.12437177 4.2038954e-45
0.99069446 0.37505126 0.12516204 2.8866748e-42
0.99021512 0.3764894 0.12543032 9.5082305e-41
0.98361522 0.37834799 0.12565789 3.7835059e-43
0.98569703 0.37848604 0.12517491 1.098618e-42
0.98313862 0.37977791 0.12592465 3.7835059e-43
0.98455667 0.38950098 0.12507585 1.6815582e-44
0.98407739 0.39093912 0.12534413 1.821688e-44
0.98519301 0.39397144 0.12539792 1.821688e-44
0.98630649 0.39701045 0.125453 1.821688e-44
0.98582494 0.39845514 0.1257225 1.821688e-44
0.98773098 0.40230596 0.12567309 1.821688e-44
0.98724782 0.40375555 0.12594351 1.821688e-44
0.98994368 0.4084264 0.12579113 1.821688e-44
0.98780704 0.41282952 0.12520421 3.657389e-43
0.98732167 0.41428566 0.12547585 3.657389e-43
0.98683637 0.4157418 0.1257475 1.6815582e-44
0.98469973 0.42014492 0.1251606 1.5414283e-44
0.98421437 0.42160106 0.12543222 1.5414283e-44
0.98530459 0.42470074 0.12549227 1.5414283e-44
0.98481816 0.42616016 0.12576455 1.5414283e-44
0.98669171 0.43009472 0.12572125 1.6815582e-44
0.98620367 0.43155909 0.12599441 4.2038954e-45
0.99232537 0.37214077 0.12600994 0
0.99184602 0.37357885 0.12627822 8.4077908e-45
0.98523682 0.37545407 0.12650099 1.8369341e-40
0.98732239 0.37558544 0.12601995 5.521172e-40
0.99136668 0.37501705 0.12654653 1.44614e-42
0.98476022 0.37688398 0.12676775 1.098618e-42
0.9908874 0.37645519 0.12681481 2.8866748e-42
0.98266202 0.38120788 0.12619141 3.7835059e-43
0.98378634 0.38421893 0.12624437 3.7835059e-43
0.98330861 0.38565207 0.12651172 3.7835059e-43
0.98283094 0.38708532 0.12677911 5.6051939e-45
0.98474962 0.3909049 0.12672862 7.0064923e-45
0.98427033 0.39234304 0.12699693 1.821688e-44
0.98786998 0.40826863 0.12627354 3.657389e-43
0.98897308 0.41133869 0.12633443 3.657389e-43
0.98848772 0.41279483 0.12660608 3.657389e-43
0.98800242 0.41425103 0.12687773 3.657389e-43
0.98428541 0.41702044 0.12650105 1.5414283e-44
0.98635107 0.41719794 0.12601915 1.6815582e-44
0.98538041 0.42011023 0.12656245 1.5414283e-44
0.98489505 0.42156643 0.12683406 4.2038954e-45
0.98598683 0.42466605 0.12689728 4.2038954e-45
0.98786432 0.42859554 0.12685782 1.4012985e-45
0.99299765 0.37210655 0.12739447 0
0.99251831 0.37354469 0.12766275 5.6051939e-45
0.99203897 0.37498283 0.12793103 9.1845305e-41
0.98590529 0.37542003 0.12787762 1.460153e-42
0.98799235 0.37555134 0.12739971 1.460153e-42
0.98428369 0.37831396 0.12703452 3.7835059e-43
0.98380709 0.37974393 0.12730128 3.7835059e-43
0.98333049 0.38117385 0.12756804 3.7835059e-43
0.98538643 0.39537859 0.12705451 1.821688e-44
0.98490602 0.39682007 0.12732339 1.821688e-44
0.98601878 0.39986545 0.12738281 1.821688e-44
0.98792547 0.40372109 0.12733904 3.657389e-43
0.98744231 0.40517068 0.12760946 3.657389e-43
0.99013907 0.40984797 0.12746462 1.821688e-44
0.98965377 0.41130406 0.12773627 1.821688e-44
0.98544878 0.41553307 0.12762871 1.6815582e-44
0.98751706 0.41570717 0.12714937 1.821688e-44
0.98496455 0.41698587 0.12789977 1.6815582e-44
0.98737627 0.43005991 0.12713099 5.6051939e-45
0.99528784 0.37362033 0.12857172 0
0.98382038 0.37528223 0.12835425 1.098618e-42
0.98866236 0.37551731 0.1287795 1.460153e-42
0.99480742 0.37506175 0.1288406 4.2038954e-45
0.98334491 0.37670887 0.12862039 1.098618e-42
0.99155968 0.37642097 0.12819931 2.7623797e-40
0.98286939 0.37813556 0.12888652 1.6815582e-44
0.98125148 0.38102281 0.12804535 3.7835059e-43
0.98077601 0.38244951 0.12831149 1.821688e-44
0.98669416 0.39983106 0.12877363 1.821688e-44
0.99130511 0.40835714 0.12859485 3.657389e-43
0.99081975 0.40981328 0.12886649 1.821688e-44
0.98916847 0.41276026 0.12800792 5.6051939e-45
0.9866122 0.41404557 0.1287564 1.6815582e-44
0.9886831 0.4142164 0.12827957 7.0064923e-45
0.98448032 0.41843879 0.12817079 1.5414283e-44
0.98557574 0.4215318 0.12823597 4.2038954e-45
0.98509043 0.42298794 0.12850758 4.2038954e-45
0.98854882 0.42856073 0.12826753 1.4012985e-45
0.98806077 0.4300251 0.12854072 4.2038954e-45
0.99072337 0.43479586 0.12840694 4.2038954e-45
0.99023312 0.43626678 0.12868136 7.0064923e-45
0.99210256 0.44022727 0.12865245 3.657389e-43
0.99161071 0.44170308 0.12892777 3.657389e-43
0.98448735 0.37524831 0.12972772 3.7835059e-43
0.98657376 0.375386 0.12925425 1.098618e-42
0.98401183 0.37667495 0.12999386 3.7835059e-43
0.99223197 0.37638676 0.12958384 4.6026909e-40
0.99432701 0.37650311 0.1291095 7.0064923e-45
0.98031443 0.379408 0.12962627 3.7835059e-43
0.98239392 0.37956226 0.12915269 3.7835059e-43
0.97984004 0.38083136 0.12989178 1.821688e-44
0.99033445 0.41126943 0.12913814 1.6815582e-44
0.99143845 0.41434586 0.12920654 5.6051939e-45
0.98612797 0.4154985 0.12902743 1.6815582e-44
0.98887849 0.41563791 0.12995309 1.5414283e-44
0.99095201 0.41580528 0.12947878 5.6051939e-45
0.98564374 0.4169513 0.12929848 1.6815582e-44
0.98515946 0.41840422 0.1295695 1.5414283e-44
0.98625648 0.42149717 0.12963781 5.6051939e-45
0.9873513 0.42459661 0.12970731 4.2038954e-45
0.98923337 0.42852592 0.12967727 9.8090893e-45
0.99032325 0.43164015 0.12974954 1.2611686e-44
0.9937762 0.4372406 0.12952256 1.5414283e-44
0.99328434 0.43871641 0.12979788 3.7835059e-43
0.99111879 0.44317889 0.12920308 3.657389e-43
0.99062693 0.4446547 0.12947839 7.258726e-43
0.99356234 0.45179671 0.12953106 1.6815582e-44
0.98724216 0.37535203 0.13063088 1.460153e-42
0.98933232 0.37548321 0.13015929 1.460153e-42
0.98676556 0.376782 0.13089761 3.7835059e-43
0.99290425 0.37635255 0.13096836 9.1845305e-41
0.99500078 0.37646884 0.13049716 5.6051939e-45
0.9835363 0.37810159 0.13026002 3.7835059e-43
0.98097986 0.37937415 0.13099658 3.7835059e-43
0.98306084 0.37952828 0.13052616 3.7835059e-43
0.97936565 0.38225472 0.13015732 3.657389e-43
0.9915005 0.40977871 0.13026837 1.6815582e-44
0.99101514 0.4112348 0.13053998 1.821688e-44
0.99212068 0.41431117 0.13061154 1.821688e-44
0.99163425 0.41577059 0.13088378 1.821688e-44
0.98839313 0.41709405 0.13022473 1.5414283e-44
0.98583865 0.41836965 0.13096821 1.5414283e-44
0.98790783 0.41855025 0.13049635 1.5414283e-44
0.99258882 0.43325502 0.13096467 8.4077908e-45
0.99043047 0.43770266 0.13037181 3.7835059e-43
0.99230057 0.44166803 0.1303485 3.7835059e-43
0.99180871 0.44314384 0.13062382 3.7835059e-43
0.9913168 0.44461966 0.13089913 3.7835059e-43
0.99615502 0.37499315 0.13161594 4.2038954e-45
0.99000233 0.37544912 0.13153908 1.460153e-42
0.98467875 0.37664104 0.13136733 3.7835059e-43
0.99567461 0.37643456 0.13188484 3.657389e-43
0.98420322 0.37806767 0.13163349 3.7835059e-43
0.97890109 0.37921339 0.13146576 1.821688e-44
0.97842777 0.38063353 0.13173068 1.6815582e-44
0.97795445 0.38205361 0.13199562 1.821688e-44
0.99169588 0.41120017 0.13194185 1.5414283e-44
0.98955917 0.41560328 0.13135493 1.6815582e-44
0.98907387 0.41705942 0.13162658 1.6815582e-44
0.98858851 0.41851556 0.13189822 2.6624671e-44
0.98693717 0.42146254 0.13103965 1.5414283e-44
0.98803347 0.42456186 0.13111234 1.5414283e-44
0.9875471 0.42602134 0.13138458 8.4077908e-45
0.99209857 0.43472594 0.13123906 7.0064923e-45
0.99160832 0.4361968 0.13151345 9.8090893e-45
0.99111807 0.43766773 0.13178784 2.3822074e-44
0.99082494 0.44609547 0.13117445 1.821688e-44
0.99033308 0.44757122 0.13144976 3.7835059e-43
0.98984116 0.44904703 0.13172507 3.0828566e-44
0.97809947 0.37397313 0.1326057 3.7835059e-43
0.97762775 0.37538838 0.13286972 3.7835059e-43
0.98791063 0.37531805 0.13200751 1.098618e-42
0.98534566 0.37660706 0.1327408 3.0828566e-44
0.98743403 0.37674797 0.13227424 3.0828566e-44
0.99309719 0.37775648 0.13262114 9.4734783e-41
0.9951942 0.37787598 0.13215372 9.5082305e-41
0.98961818 0.41103613 0.13241044 2.3822074e-44
0.99072522 0.41411245 0.13248515 2.3822074e-44
0.99023986 0.41556859 0.1327568 2.3822074e-44
0.98810321 0.4199717 0.13216987 2.6624671e-44
0.98761785 0.42142791 0.13244152 3.7835059e-43
0.98713255 0.42288399 0.13271317 1.5414283e-44
0.98822933 0.42598665 0.13278958 1.5414283e-44
0.99011439 0.42992055 0.13276994 1.2611686e-44
0.99278617 0.43469095 0.13265511 8.4077908e-45
0.99229592 0.43616182 0.1329295 9.8090893e-45
0.99062783 0.43913859 0.13206226 2.3822074e-44
0.99013758 0.44060951 0.13233665 2.2420775e-44
0.98964733 0.44208038 0.13261104 2.2420775e-44
0.9915148 0.4460603 0.13259524 4.3440252e-44
0.99102294 0.44753611 0.13287055 4.7644148e-44
0.97876102 0.37393951 0.13396814 1.821688e-44
0.99019462 0.37684822 0.13318625 2.1804204e-42
0.99424881 0.37628412 0.13373739 2.7623797e-40
0.99634844 0.37640029 0.1332725 5.6051939e-45
0.98487014 0.37803376 0.13300696 1.821688e-44
0.9876259 0.37814391 0.13391763 2.9427268e-44
0.98971695 0.37828147 0.13345361 1.8328984e-42
0.97909158 0.38059974 0.13309786 2.6624671e-44
0.99237657 0.41116548 0.13334373 1.1210388e-44
0.99189121 0.41262168 0.13361534 0
0.9914059 0.41407788 0.13388699 1.4012985e-45
0.98975456 0.41702473 0.13302842 2.3822074e-44
0.98719698 0.41830057 0.13376561 2.6624671e-44
0.9892692 0.41848093 0.1333001 2.3822074e-44
0.98829854 0.42139328 0.13384339 4.7644148e-44
0.99180567 0.43763274 0.13320392 9.18397e-41
0.99584585 0.43713528 0.13378495 1.9361082e-39
0.99131542 0.4391036 0.13347831 9.18397e-41
0.99082518 0.44057453 0.1337527 1.4012985e-45
0.99269658 0.44454944 0.13374072 9.18397e-41
0.99053109 0.44901192 0.13314587 4.7644148e-44
0.97828931 0.37535471 0.13423216 2.3822074e-44
0.97781765 0.3767699 0.13449618 2.3822074e-44
0.99086457 0.37681419 0.13456601 6.4326186e-40
0.99376947 0.37772226 0.13400567 2.7555694e-40
0.9903869 0.37824738 0.13483337 8.2765171e-40
0.99305725 0.41113091 0.13474557 2.4889317e-39
0.99092054 0.41553402 0.13415864 9.18397e-41
0.99043524 0.41699016 0.13443029 9.18397e-41
0.98994994 0.4184463 0.13470194 3.6734198e-40
0.98781323 0.42284936 0.13411501 5.1848043e-44
0.98891157 0.4259519 0.13419461 4.6422496e-40
0.99079889 0.42988575 0.13417968 1.1095944e-39
0.99298352 0.43612683 0.13434556 2.489282e-39
0.99249321 0.43759775 0.13461995 2.5814776e-39
0.99200302 0.43906868 0.13489434 3.0424558e-39
0.99220473 0.44602525 0.13401604 9.18397e-41
0.99171281 0.447501 0.13429132 6.4285968e-40
0.99122095 0.44897681 0.13456663 6.4501908e-40
0.99072909 0.45045269 0.13484195 9.2160738e-40
0.97989422 0.37249064 0.13506657 1.5414283e-44
0.97942257 0.37390584 0.13533059 1.5414283e-44
0.99248993 0.37391365 0.13541105 3.7132307e-40
0.97895086 0.37532103 0.13559458 9.185091e-41
0.99201226 0.3753469 0.13567841 1.3811226e-39
0.97847921 0.37673628 0.1358586 9.185091e-41
0.99153459 0.37678009 0.13594577 1.6573507e-39
0.98829436 0.37810993 0.13529426 1.3808241e-39
0.99257195 0.41258705 0.13501722 2.5814776e-39
0.99160129 0.41549933 0.13556051 2.768387e-39
0.99368095 0.41566646 0.13509884 2.8580645e-39
0.99111593 0.41695547 0.13583216 3.2293652e-39
0.98787612 0.418266 0.13516432 7.350441e-40
0.98690766 0.42117172 0.13570639 9.219563e-40
0.98897928 0.42135859 0.13524523 5.5317378e-40
0.9895938 0.42591715 0.13559961 1.751717e-39
0.99148345 0.42985094 0.13558945 2.0283039e-39
0.99416131 0.43462098 0.1354872 1.7553141e-39
0.99367106 0.43609184 0.13576159 1.8475097e-39
0.99151278 0.44053954 0.13516873 2.8594939e-39
0.99102253 0.4420104 0.13544315 3.1360807e-39
0.99053228 0.44348133 0.13571754 3.1375185e-39
0.99004203 0.44495225 0.13599193 3.2297155e-39
0.99191087 0.44894171 0.13598743 3.2297155e-39
0.98055583 0.37245697 0.13642901 1.5666265e-39
0.98008412 0.37387216 0.13669303 1.9354076e-39
0.97639966 0.37656426 0.13631621 9.18397e-41
0.99511403 0.37765384 0.13677466 5.0718134e-39
0.98896283 0.3780759 0.13667089 1.9357579e-39
0.99105686 0.37821329 0.13621315 1.4747798e-39
0.97753584 0.37956667 0.1363866 9.18397e-41
0.97706413 0.38098186 0.13665059 4.2038954e-45
0.99373794 0.41109622 0.13614741 2.1230232e-39
0.99325264 0.41255242 0.13641906 2.0315409e-39
0.99228197 0.41546476 0.13696235 3.047848e-39
0.99436319 0.41563177 0.13650385 2.7691059e-39
0.98903954 0.41677856 0.13629198 3.8729171e-39
0.98855531 0.41823149 0.136563 4.0576671e-39
0.98965997 0.42132401 0.13664708 3.5992071e-39
0.99318081 0.43756276 0.13603598 2.1237365e-39
0.99269062 0.43903363 0.1363104 2.8616603e-39
0.99220037 0.44050455 0.13658479 2.6787081e-39
0.99171013 0.44197547 0.13685918 2.8634595e-39
0.98121738 0.37242329 0.13779145 2.3963773e-39
0.97800082 0.37370682 0.13714868 2.8594939e-39
0.97753024 0.37511879 0.13741207 2.9516895e-39
0.97705966 0.37653071 0.13767546 3.4112383e-39
0.9781974 0.37953299 0.13774905 3.8722165e-39
0.99463469 0.37909198 0.13704297 5.0718134e-39
0.99415535 0.38053012 0.13731125 4.7048456e-39
0.9933033 0.40799218 0.13746318 4.1538452e-39
0.99441868 0.41106164 0.13754925 4.0616496e-39
0.99393332 0.41251779 0.1378209 3.5091793e-39
0.99504536 0.41559702 0.13790885 3.4169836e-39
0.99179667 0.4169209 0.137234 3.4166305e-39
0.99131131 0.41837704 0.13750565 3.1411324e-39
0.99082595 0.41983318 0.1377773 3.2333281e-39
0.98758686 0.42113721 0.13710511 3.7832382e-39
0.99027598 0.42588246 0.13700464 3.7832382e-39
0.98978955 0.42734194 0.13727689 3.8754338e-39
0.99326438 0.43293321 0.13708782 3.5988568e-39
0.99277526 0.4344008 0.13736162 3.5988568e-39
0.99386841 0.43752778 0.13745207 3.5988568e-39
0.99337816 0.4389987 0.13772646 3.5066611e-39
0.99121988 0.44344628 0.13713357 2.6808633e-39
0.99072963 0.4449172 0.13740796 2.5886677e-39
0.99260074 0.44890666 0.1374082 2.9556552e-39
0.99210882 0.45038247 0.13768351 2.8634595e-39
0.98235059 0.37097442 0.13888988 4.61265e-39
0.97866088 0.37367326 0.13850796 2.8609414e-39
0.98074567 0.37383854 0.13805547 2.8577142e-39
0.97980231 0.37666893 0.13858348 3.1371681e-39
0.97933066 0.37808412 0.13884747 2.8631064e-39
0.99530697 0.37905777 0.13842747 4.1545487e-39
0.97772568 0.38094819 0.13801304 3.5992071e-39
0.99482763 0.38049591 0.13869575 4.3382365e-39
0.99286342 0.40489483 0.13877386 3.511696e-39
0.99509937 0.41102695 0.13895115 3.5102737e-39
0.99296266 0.41543007 0.1383642 3.9669302e-39
0.991992 0.41834241 0.13890749 3.5070661e-39
0.99407256 0.41851592 0.13845336 3.9669302e-39
0.98826605 0.42110264 0.13850379 3.1414827e-39
0.99034065 0.42128932 0.13804895 3.1414827e-39
0.98888469 0.42565781 0.13886389 3.0492857e-39
0.99095821 0.42584777 0.13840964 3.1414827e-39
0.98998541 0.42876661 0.13895416 3.2318819e-39
0.99288797 0.44046956 0.13800085 2.9560055e-39
0.99190748 0.44341135 0.13854963 2.7709108e-39
0.99141723 0.44488227 0.13882405 2.7709108e-39
0.99476624 0.44444412 0.13800305 2.6790585e-39
0.9932906 0.44887149 0.13882899 2.6787137e-39
0.97979146 0.37222779 0.13960385 4.61265e-39
0.98187894 0.37238967 0.13915387 4.61265e-39
0.97932088 0.3736397 0.13986725 4.1541983e-39
0.98046386 0.37663525 0.13994589 4.246394e-39
0.97885895 0.37949932 0.13911149 3.5084758e-39
0.9783873 0.38091457 0.13937548 3.8772513e-39
0.9841969 0.39237535 0.13933846 3.8776016e-39
0.99238026 0.40634441 0.13904428 3.5102737e-39
0.99461401 0.41248316 0.13922277 3.3262327e-39
0.99364334 0.4153955 0.13976607 3.8743815e-39
0.9957276 0.41556233 0.13931385 3.2340371e-39
0.9915067 0.41979855 0.13917914 3.5070661e-39
0.99053603 0.42271084 0.13972244 3.2315288e-39
0.99261332 0.42289418 0.13927013 3.2315288e-39
0.99164045 0.42581308 0.13981465 3.4155711e-39
0.98949897 0.43022603 0.13922644 3.4162746e-39
0.9929722 0.43583357 0.13904828 3.0474977e-39
0.99248302 0.43730116 0.13932207 2.8631064e-39
0.99357551 0.44043458 0.13941687 2.6787137e-39
0.99308532 0.4419055 0.13969129 2.6787137e-39
0.99259508 0.4433763 0.13996568 2.6787137e-39
0.99279875 0.45034736 0.13910431 2.6787137e-39
0.99388045 0.45350868 0.13920116 2.5861594e-39
0.98301214 0.3709408 0.14025232 4.1538452e-39
0.98045152 0.37219417 0.14096314 3.8786975e-39
0.98254049 0.372356 0.14051631 3.8786975e-39
0.9923979 0.37368405 0.14000049 5.257669e-39
0.99516982 0.37377733 0.14093018 4.7059204e-39
0.99144471 0.37654394 0.14053401 4.2453374e-39
0.99354452 0.37667787 0.14008513 4.7044953e-39
0.99096817 0.37797391 0.14080077 4.0609461e-39
0.99713081 0.3775512 0.14092821 5.2573159e-39
0.97999221 0.37805045 0.14020991 4.1531418e-39
0.98146421 0.3832711 0.14046356 4.2438758e-39
0.98099095 0.38469124 0.14072847 4.1513215e-39
0.98534191 0.3909114 0.14044833 3.6010218e-39
0.98486531 0.39234138 0.14071509 3.5088261e-39
0.98599464 0.39537787 0.14080134 3.5088289e-39
0.99113381 0.40244561 0.14043921 3.6010246e-39
0.99065232 0.40389025 0.14070871 3.6010218e-39
0.99257475 0.40775955 0.14071026 3.5088261e-39
0.9920916 0.40920913 0.14098069 3.4166305e-39
0.99480939 0.41390467 0.14089629 3.3244335e-39
0.99315804 0.41685164 0.14003772 3.9665771e-39
0.99267274 0.41830778 0.14030936 3.5974499e-39
0.99218738 0.41976392 0.14058101 3.5052542e-39
0.99329555 0.42285949 0.14067513 3.0474977e-39
0.98956537 0.42562318 0.14026573 3.0471473e-39
0.98908001 0.42707932 0.14053738 2.9556552e-39
0.98859471 0.42853546 0.14080903 2.9556552e-39
0.99207282 0.43413949 0.14063817 3.0471473e-39
0.99158478 0.43560386 0.14091134 2.6780047e-39
0.99210483 0.44484723 0.14024007 2.6787137e-39
0.99161458 0.44631815 0.14051446 2.7709108e-39
0.99348861 0.45031226 0.14052507 2.955302e-39
0.98320204 0.37232232 0.14187875 3.8765479e-39
0.97998095 0.37360609 0.14122653 3.786855e-39
0.99924105 0.37320262 0.14150786 0
0.98112541 0.37660158 0.14130834 3.786855e-39
0.99211317 0.3765099 0.14191064 4.6115962e-39
0.99421448 0.37664378 0.14146492 4.7966965e-39
0.98065376 0.37801683 0.14157236 4.0609405e-39
0.98373991 0.38483071 0.14165094 4.1513215e-39
0.98326552 0.38625407 0.14191648 4.0591258e-39
0.98601037 0.39087737 0.14182496 3.5084758e-39
0.98714232 0.39391053 0.14191374 3.4162802e-39
0.99432403 0.41536081 0.14116794 3.7825376e-39
0.99383873 0.41681695 0.14143959 3.5063108e-39
0.99335343 0.41827315 0.14171121 3.413053e-39
0.99286807 0.41972929 0.14198288 3.3208574e-39
0.99121672 0.42267621 0.14112431 3.0474977e-39
0.99073142 0.42413235 0.14139596 3.3212077e-39
0.99024606 0.42558855 0.1416676 3.2290121e-39
0.98976076 0.42704469 0.14193925 2.6787137e-39
0.99267989 0.43873388 0.14100873 2.6787137e-39
0.99377286 0.44187051 0.14110732 2.6787137e-39
0.99121249 0.44313669 0.14183009 2.6787137e-39
0.99328268 0.44334137 0.14138174 2.6787137e-39
0.99230218 0.44628322 0.14193052 2.8631064e-39
0.99417847 0.45027721 0.14194587 3.0474977e-39
0.98111153 0.37216061 0.14232242 3.8765479e-39
0.99631751 0.37231004 0.14204258 0
0.98064095 0.37357253 0.14258581 3.8768982e-39
0.99583983 0.37374324 0.14230996 3.8747346e-39
0.9862957 0.37464905 0.14297551 3.8765479e-39
0.99536216 0.37517643 0.14257732 4.6122996e-39
0.98178697 0.37656796 0.14267078 3.6928671e-39
0.99001408 0.3763696 0.14235511 4.4272035e-39
0.99488449 0.37660968 0.14284471 3.9669302e-39
0.98131531 0.37798315 0.14293477 3.6003211e-39
0.98666465 0.39534378 0.14218113 3.8743815e-39
0.99020284 0.40080142 0.14200673 3.8743815e-39
0.99132764 0.40385592 0.14209953 3.9665771e-39
0.99084616 0.40530062 0.14236903 3.8743815e-39
0.99036467 0.40674531 0.14263856 3.2315288e-39
0.99388808 0.41224718 0.14247239 3.2315288e-39
0.99340385 0.41369998 0.14274344 3.5981533e-39
0.99451941 0.41678238 0.14284143 3.5059577e-39
0.99238276 0.42118549 0.1422545 3.3212077e-39
0.9918974 0.42264158 0.14252615 3.2290121e-39
0.9914121 0.42409778 0.1427978 2.9524336e-39
0.98768741 0.42684507 0.14238536 2.6787137e-39
0.99037701 0.43161607 0.14230868 2.6780047e-39
0.99226928 0.43556905 0.14232108 2.6780047e-39
0.99178123 0.43703341 0.14259425 2.5861594e-39
0.99446046 0.44183552 0.14252338 2.4939637e-39
0.99397022 0.44330639 0.14279777 2.4939637e-39
0.99368662 0.45175302 0.14222118 3.6013749e-39
0.99535644 0.37072217 0.14359686 0
0.99746519 0.3708427 0.14315501 0
0.98339188 0.37370384 0.14350519 3.8765479e-39
0.99650979 0.37370914 0.14368972 3.3215608e-39
0.98292023 0.37511909 0.1437692 3.6928671e-39
0.99603212 0.37514234 0.14395711 3.3251734e-39
0.99068099 0.37633562 0.14372858 3.5081255e-39
0.99278164 0.37647593 0.14328727 3.6003211e-39
0.98440528 0.38479686 0.14302126 3.5084758e-39
0.98393089 0.38622022 0.14328679 3.4162802e-39
0.98667884 0.39084339 0.14320159 3.3237244e-39
0.98620224 0.39227331 0.14346835 3.2315288e-39
0.98733461 0.39530969 0.14356089 3.7821844e-39
0.99087662 0.40076721 0.14339438 3.5981533e-39
0.99200302 0.40382153 0.14349034 3.5981533e-39
0.99152148 0.40526623 0.14375985 3.5059577e-39
0.99456728 0.41221261 0.1438711 2.955302e-39
0.9924354 0.41660583 0.14328551 2.955302e-39
0.99195117 0.41805869 0.14355654 2.955302e-39
0.99146694 0.41951156 0.14382756 2.8631064e-39
0.98933506 0.42390472 0.14324197 2.9524336e-39
0.98885083 0.42535758 0.14351302 2.217737e-39
0.98995614 0.4284662 0.14361274 2.1255414e-39
0.99344188 0.43406987 0.14345768 2.1255414e-39
0.99295384 0.43553424 0.14373085 2.3099326e-39
0.99405205 0.43866408 0.14383453 2.5865125e-39
0.99514806 0.44180053 0.14393944 2.4943169e-39
0.99347997 0.44477731 0.14307219 2.5861594e-39
0.99298978 0.44624817 0.14334658 2.8631064e-39
0.9948684 0.45024204 0.14336663 3.6006714e-39
0.99437654 0.45171785 0.14364195 3.3262327e-39
0.99602491 0.37068808 0.14497349 0
0.98405343 0.37367022 0.14486763 3.5081255e-39
0.99182338 0.37487507 0.14483592 3.6925167e-39
0.98858249 0.37618881 0.1441687 3.5081255e-39
0.99555445 0.37657559 0.14422446 3.5099233e-39
0.98440242 0.38032955 0.14403519 3.5081255e-39
0.9839291 0.38174963 0.1443001 3.5081255e-39
0.98507071 0.384763 0.1443916 3.5081255e-39
0.98459631 0.38618636 0.14465714 3.3233741e-39
0.98734725 0.39080942 0.14457822 3.2315288e-39
0.9884823 0.3938424 0.14467332 3.2315288e-39
0.98800462 0.39527559 0.1449407 3.2311785e-39
0.99155045 0.40073287 0.14478207 3.0471473e-39
0.99267834 0.40378714 0.14488116 3.0471473e-39
0.99103999 0.40671092 0.14402938 2.955302e-39
0.99408305 0.41366541 0.14414212 3.413762e-39
0.99359876 0.41511834 0.14441317 3.413762e-39
0.99311453 0.41657126 0.1446842 3.413762e-39
0.99098271 0.42096442 0.14409861 2.8631064e-39
0.9900142 0.42387021 0.14464068 2.4936134e-39
0.99209279 0.42406309 0.14419967 2.6780047e-39
0.98952997 0.42532301 0.14491171 2.217737e-39
0.99465781 0.4432714 0.14421383 2.4939637e-39
0.99416757 0.44474232 0.14448822 2.5861594e-39
0.99367732 0.44621325 0.14476264 3.3212077e-39
0.99554831 0.37211806 0.14524025 2.953137e-39
0.99507171 0.37354803 0.14550701 3.8768982e-39
0.98762339 0.37458152 0.14570981 3.5081255e-39
0.98972231 0.37473154 0.14527348 3.6925167e-39
0.99459511 0.37497795 0.14577377 3.9690938e-39
0.98358178 0.37508547 0.14513165 3.5081255e-39
0.98506629 0.38029575 0.14540237 3.4155711e-39
0.98459297 0.38171589 0.14566728 3.4155711e-39
0.98573607 0.38472915 0.14576191 3.4155711e-39
0.98687696 0.38774902 0.14585775 3.2311785e-39
0.99219686 0.40523183 0.14515066 3.0471473e-39
0.99171531 0.40667653 0.14542019 3.413762e-39
0.99524641 0.41217804 0.14526981 3.413762e-39
0.99476218 0.4136309 0.14554083 3.413762e-39
0.99427795 0.41508383 0.14581189 3.413762e-39
0.99103117 0.41638827 0.1451239 3.413762e-39
0.99006492 0.41928744 0.14566475 2.8631064e-39
0.99214607 0.41947699 0.14522627 2.955302e-39
0.99117762 0.42238271 0.14576834 2.6780117e-39
0.98745465 0.42512035 0.1453509 1.6645632e-39
0.99015146 0.42988777 0.14528623 1.7578308e-39
0.99125504 0.43300605 0.14539096 2.4032002e-39
0.99076861 0.43446553 0.14566323 2.5865125e-39
0.99424893 0.44009674 0.14552122 2.5865125e-39
0.99375981 0.44156444 0.14579499 2.5868684e-39
0.99318713 0.44768411 0.14503703 3.7821844e-39
0.99269688 0.44915497 0.14531142 4.0591258e-39
0.98471504 0.3736366 0.14623007 3.4155711e-39
0.98876059 0.37312764 0.14681208 4.0584224e-39
0.99086207 0.37327433 0.14637828 4.4272035e-39
0.99574012 0.373514 0.14688364 3.8768982e-39
0.99784976 0.37364101 0.1464493 2.5832727e-39
0.98424333 0.3750518 0.14649406 3.5084758e-39
0.98573011 0.38026202 0.14676952 3.4155711e-39
0.9864015 0.38917565 0.14612392 3.2315288e-39
0.98753911 0.39220536 0.14622161 3.2315288e-39
0.98867458 0.3952415 0.14632046 3.7818341e-39
0.99222422 0.4006986 0.14616972 3.597803e-39
0.99335366 0.4037528 0.14627197 3.0471473e-39
0.99287218 0.4051975 0.14654148 3.0471473e-39
0.99480218 0.40907127 0.14656287 3.047848e-39
0.99592561 0.41214347 0.14666849 3.047848e-39
0.99544138 0.41359633 0.14693955 3.413762e-39
0.99219197 0.41490412 0.14624903 3.3212077e-39
0.99170882 0.41635376 0.14651945 3.3212077e-39
0.99122566 0.41780335 0.14678988 2.8634595e-39
0.98909861 0.42218661 0.1462056 2.5854559e-39
0.98861545 0.4236362 0.14647603 2.217737e-39
0.9881323 0.42508584 0.14674643 1.6645632e-39
0.99083221 0.42985308 0.1466881 1.5734396e-39
0.99193728 0.43297136 0.14679599 2.1262546e-39
0.99493504 0.44006187 0.14693409 2.8609414e-39
0.99327064 0.44303203 0.14606878 2.6790641e-39
0.99436492 0.4461782 0.14617866 3.2293652e-39
0.99387467 0.44764912 0.14645308 3.5985064e-39
0.99338448 0.44912004 0.14672744 3.2315288e-39
0.98584825 0.37218773 0.1473285 3.5081255e-39
0.98537654 0.37360287 0.14759251 3.5081255e-39
0.9915275 0.37324047 0.14774859 4.2431724e-39
0.99363273 0.37338054 0.14731672 4.1538452e-39
0.98490489 0.37501812 0.1478565 3.4162802e-39
0.98525685 0.3816821 0.14703444 3.4155711e-39
0.98640144 0.38469529 0.14713222 3.2315288e-39
0.98754388 0.3877151 0.14723122 3.3237244e-39
0.98706836 0.38914174 0.14749739 3.5981533e-39
0.98982221 0.39377421 0.14743289 3.5981533e-39
0.9917649 0.39761674 0.14745322 3.597803e-39
0.99289805 0.40066433 0.14755741 3.597803e-39
0.99402899 0.40371847 0.14766282 3.413762e-39
0.9935475 0.40516317 0.14793232 3.5059577e-39
0.99547976 0.40903676 0.14795843 3.0474977e-39
0.99495715 0.41504925 0.14721057 3.413762e-39
0.99238646 0.41631925 0.14791501 2.8631064e-39
0.99447292 0.41650212 0.14748162 2.955302e-39
0.9907425 0.41925293 0.1470603 2.8634595e-39
0.98977625 0.42215216 0.14760116 2.6780047e-39
0.99185675 0.4223482 0.14716706 2.7705604e-39
0.9892931 0.42360175 0.14787158 2.5865125e-39
0.99145085 0.43443084 0.14706826 2.8609414e-39
0.99444586 0.44152951 0.14720789 2.5868684e-39
0.99395669 0.4429971 0.14748168 2.6790641e-39
0.99456227 0.44761413 0.14786911 3.2290121e-39
0.98698145 0.37073886 0.14842692 4.0584224e-39
0.9865098 0.37215406 0.14869091 3.6003211e-39
0.98603815 0.37356925 0.14895493 3.5081255e-39
0.99429965 0.37334657 0.14869019 4.2442262e-39
0.99640858 0.37347996 0.14826027 4.0598349e-39
0.98443323 0.37643331 0.14812052 3.3237244e-39
0.98592067 0.3816483 0.14840162 3.3237244e-39
0.98544735 0.38306844 0.14866653 3.7821844e-39
0.9882108 0.38768113 0.14860469 3.7821844e-39
0.98773533 0.38910782 0.14887086 3.5981533e-39
0.99049217 0.39374018 0.14881268 3.5981533e-39
0.99243718 0.39758253 0.14883772 3.597803e-39
0.99357182 0.40063 0.14894506 3.5056073e-39
0.99451351 0.41193599 0.14849928 3.413762e-39
0.99660474 0.4121089 0.14806721 2.955302e-39
0.99403036 0.41338563 0.14876971 3.413762e-39
0.99515206 0.41646755 0.14888033 3.3212077e-39
0.99190331 0.41776884 0.1481854 3.3215608e-39
0.99142015 0.41921842 0.14845583 3.3215608e-39
0.99045384 0.42211765 0.14899668 3.1371681e-39
0.99253595 0.42231363 0.14856574 3.3215608e-39
0.98880994 0.42505133 0.14814201 2.2180901e-39
0.98991984 0.42815971 0.14825118 2.4917987e-39
0.98943561 0.42961258 0.14852223 2.8609414e-39
0.98895139 0.43106544 0.14879325 2.8609414e-39
0.98950517 0.44026852 0.14815727 3.136815e-39
0.99407202 0.449085 0.14814353 3.3215608e-39
0.99008828 0.37306011 0.14954638 3.5088289e-39
0.99219286 0.37320662 0.14911893 3.6932202e-39
0.99707705 0.37344599 0.14963689 2.2206068e-39
0.99918973 0.37357283 0.14920887 2.3052635e-39
0.98556644 0.3749845 0.14921895 3.5081255e-39
0.98961496 0.37448019 0.14981133 3.5084758e-39
0.99660045 0.3748759 0.14990363 3.2344e-39
0.98509479 0.37639964 0.14948294 3.5081255e-39
0.98658454 0.38161457 0.14976877 3.3237244e-39
0.98773223 0.38462758 0.14987287 3.7821844e-39
0.98887771 0.38764727 0.14997816 3.7821844e-39
0.9930914 0.40207142 0.14921394 3.5059577e-39
0.99422288 0.40512884 0.14932314 3.5059577e-39
0.99374133 0.40657353 0.14959264 3.0474977e-39
0.99567431 0.41045189 0.14962441 3.0474977e-39
0.99519116 0.41190147 0.14989483 3.5063108e-39
0.99306405 0.4162848 0.14931056 3.3212077e-39
0.99258095 0.41773438 0.14958099 2.8631064e-39
0.9920978 0.41918397 0.14985138 2.8631064e-39
0.98997074 0.4235673 0.14926711 3.1371681e-39
0.99108326 0.42667222 0.14937884 2.953137e-39
0.99219358 0.42978382 0.14949182 2.8609414e-39
0.99170822 0.43123996 0.14976346 2.8609414e-39
0.98846716 0.4325183 0.1490643 2.8609414e-39
0.98957157 0.43564308 0.14917654 2.8609414e-39
0.99067384 0.43877435 0.14929003 2.953137e-39
0.99018741 0.44023383 0.14956227 2.9527839e-39
0.99366444 0.44589746 0.14944217 2.9527839e-39
0.99317533 0.44736505 0.14971596 3.1371681e-39
0.9866997 0.37353557 0.15031737 3.5084758e-39
0.99285823 0.37317276 0.15048924 3.5088289e-39
0.98622799 0.37495077 0.15058139 3.4162802e-39
0.99238384 0.37459612 0.15075478 3.4162746e-39
0.99938202 0.37497193 0.15085599 2.5850509e-39
0.98575634 0.37636602 0.15084538 3.4162802e-39
0.99002105 0.39067334 0.1500847 3.5981533e-39
0.99116218 0.39370608 0.15019244 3.5981533e-39
0.99310941 0.39754832 0.15022224 3.5981533e-39
0.99263012 0.39898646 0.15049052 3.5981533e-39
0.99376523 0.40203714 0.15060163 3.413762e-39
0.99328482 0.40347856 0.15087053 3.413762e-39
0.99441671 0.40653914 0.15098345 2.955302e-39
0.99229681 0.41090757 0.15040118 3.3215608e-39
0.99422485 0.4148007 0.15043569 3.2286617e-39
0.99374169 0.41625035 0.15070611 3.1364647e-39
0.99161464 0.42063355 0.15012181 3.2293652e-39
0.99113148 0.42208314 0.15039223 3.3215608e-39
0.99064833 0.42353278 0.15066266 3.136815e-39
0.99335963 0.42829305 0.15062204 2.9527839e-39
0.99287426 0.42974925 0.15089366 2.9527839e-39
0.98963052 0.43103087 0.15019196 2.953137e-39
0.98914629 0.43248373 0.15046299 2.8609414e-39
0.99184251 0.43728018 0.15042275 2.8609414e-39
0.99135607 0.43873966 0.15069503 2.8609414e-39
0.99325168 0.4427166 0.15073565 2.8605883e-39
0.98736125 0.3735019 0.15167981 3.5981533e-39
0.99563348 0.37327874 0.15143713 3.9679868e-39
0.98688954 0.37491715 0.15194383 3.597803e-39
0.99027884 0.37444639 0.15117848 3.8743815e-39
0.99515796 0.37470543 0.1517033 3.3240775e-39
0.98528463 0.37778115 0.1511094 3.3237244e-39
0.98677504 0.38300091 0.15140086 3.5056073e-39
0.98954463 0.3876133 0.15135166 3.5056073e-39
0.99068952 0.39063931 0.15146133 3.413762e-39
0.99426103 0.39607596 0.15133849 3.5059577e-39
0.9933024 0.39895225 0.15187505 3.413762e-39
0.99539989 0.39912009 0.1514515 3.5059577e-39
0.99443907 0.40200287 0.15198928 3.413762e-39
0.9929722 0.41087317 0.15179199 2.8634595e-39
0.9963519 0.41041744 0.15101996 2.955302e-39
0.9958688 0.41186702 0.15129039 2.9556552e-39
0.9908523 0.4152416 0.15120968 2.6787137e-39
0.99277544 0.41914952 0.15124694 2.6787137e-39
0.99229228 0.4205991 0.15151736 2.9527839e-39
0.99180913 0.42204869 0.15178779 3.136815e-39
0.99292582 0.42515028 0.15190524 3.1364647e-39
0.99238896 0.43120539 0.15116534 2.9527839e-39
0.99349755 0.43432665 0.15128326 2.8609414e-39
0.99301112 0.43578613 0.15155554 2.8609414e-39
0.99252474 0.43724549 0.15182778 2.8609414e-39
0.99276358 0.44418097 0.15100884 2.7683926e-39
0.99227554 0.44564533 0.15128201 2.6758383e-39
0.99841392 0.37337798 0.15239015 8.3624448e-40
0.9930492 0.37456226 0.15212509 3.2318819e-39
0.99046934 0.3758328 0.15281057 3.5056073e-39
0.99257481 0.37598568 0.15239063 3.597803e-39
0.98641789 0.37633234 0.15220782 3.597803e-39
0.99769336 0.40069169 0.15268707 3.413762e-39
0.99721187 0.40213639 0.15295658 3.413762e-39
0.99395865 0.40344429 0.15225819 3.3212077e-39
0.99509203 0.40650475 0.15237427 3.3212077e-39
0.99461049 0.40794945 0.15264377 3.3212077e-39
0.994129 0.40939415 0.15291327 3.3215608e-39
0.99249065 0.41231787 0.15206149 2.6787137e-39
0.99200916 0.41376257 0.15233099 2.6787137e-39
0.99152768 0.41520727 0.15260053 2.6787137e-39
0.99104613 0.41665196 0.15287003 2.6787137e-39
0.99404031 0.42825842 0.15202388 2.9524336e-39
0.99515259 0.43137312 0.15214378 2.9527839e-39
0.99466622 0.43283248 0.15241602 2.8605883e-39
0.99417979 0.43429196 0.15268829 2.8605883e-39
0.99369335 0.43575138 0.15296054 2.8605883e-39
0.99203831 0.43870497 0.15210006 2.8609414e-39
0.99393618 0.44268179 0.15214542 2.8605883e-39
0.99344814 0.4441461 0.15241858 2.6758383e-39
0.9929601 0.44561046 0.15269175 2.6758383e-39
0.98755109 0.37488353 0.15330625 3.5056073e-39
0.99371463 0.37452847 0.1534954 3.2322378e-39
0.99582487 0.37467146 0.15307677 3.4166305e-39
0.99324018 0.37595189 0.15376094 3.5981533e-39
0.99463242 0.40341002 0.15364584 2.8631064e-39
0.99673039 0.40358102 0.15322608 2.8631064e-39
0.99576735 0.40647042 0.15376508 2.8631064e-39
0.99364752 0.41083884 0.1531828 3.1371681e-39
0.99316597 0.41228354 0.15345231 2.7709108e-39
0.99268448 0.41372824 0.15372181 2.6787137e-39
0.992203 0.41517293 0.15399131 2.6787137e-39
0.99056464 0.41809666 0.15313953 2.6787137e-39
0.99008316 0.41954136 0.15340903 2.5861594e-39
0.99360496 0.4251157 0.15330392 2.6780047e-39
0.99632126 0.42987895 0.15327653 2.6780047e-39
0.99583483 0.43133837 0.15354878 2.5861594e-39
0.99534845 0.43279779 0.15382105 2.4939637e-39
0.99320692 0.4372108 0.15323281 2.8605883e-39
0.99272054 0.43867028 0.15350506 2.8605883e-39
0.99462074 0.44264698 0.15355512 2.7683926e-39
0.99413264 0.44411129 0.15382832 2.6758383e-39
0.99065989 0.37721908 0.15444267 3.597803e-39
0.99276578 0.37737525 0.15402648 3.5059577e-39
0.99018657 0.37863922 0.15470761 3.5056073e-39
0.99836874 0.4006573 0.15407789 2.955302e-39
0.99740571 0.40354669 0.15461689 2.8631064e-39
0.99692422 0.40499139 0.15488642 3.0474977e-39
0.99528587 0.40791512 0.15403461 2.8631064e-39
0.99886799 0.40886438 0.15493616 2.9549517e-39
0.99271077 0.40917563 0.15472141 2.8631064e-39
0.99480432 0.40935981 0.15430412 2.7709108e-39
0.99223036 0.41061705 0.15499032 2.8631064e-39
0.99172145 0.41661763 0.15426081 2.6787137e-39
0.99123996 0.41806233 0.15453035 2.5861594e-39
0.99075848 0.41950697 0.15479982 2.6787137e-39
0.99268126 0.42342937 0.15484932 2.6787137e-39
0.99540168 0.42818916 0.15482759 2.6787137e-39
0.99486202 0.43425727 0.15409333 2.6787137e-39
0.99437559 0.43571663 0.15436557 2.6787137e-39
0.99388915 0.43717611 0.15463781 2.6787137e-39
0.99340278 0.43863553 0.15491009 2.5861594e-39
0.9936446 0.44557565 0.15410149 2.6758383e-39
0.99274367 0.37292498 0.15501508 2.8656077e-39
0.99179703 0.3757652 0.15554494 3.597803e-39
0.9939056 0.37591803 0.15513125 3.597803e-39
0.99132377 0.37718534 0.15580985 3.2308253e-39
0.99596119 0.40788078 0.15542543 2.8627561e-39
0.9954797 0.40932542 0.15569493 2.8631064e-39
0.99499816 0.41077012 0.15596443 2.8631064e-39
0.99174994 0.41205847 0.15525922 2.8631064e-39
0.99287832 0.41513854 0.15538216 2.8631064e-39
0.99239683 0.41658324 0.15565166 2.7709108e-39
0.99191529 0.41802794 0.15592116 3.2290121e-39
0.99384207 0.42194527 0.15597445 3.136815e-39
0.99491638 0.4296453 0.15509924 2.585809e-39
0.99603069 0.4327631 0.15522605 2.4936134e-39
0.99346042 0.43401378 0.15591419 2.6787137e-39
0.99554425 0.43422252 0.15549833 2.6787137e-39
0.99291635 0.44009495 0.15518233 2.8605883e-39
0.9948172 0.44407642 0.15523806 2.8605883e-39
0.99432915 0.44554079 0.15551123 2.8605883e-39
0.99971938 0.40058863 0.15685952 3.0471473e-39
0.99759954 0.404957 0.15627724 3.0474977e-39
0.99663651 0.40784639 0.15681624 3.0471473e-39
0.99954563 0.40882993 0.15633175 3.0471473e-39
0.99857932 0.4117291 0.15687257 3.413762e-39
0.99451667 0.41221482 0.15623394 2.8631064e-39
0.99403518 0.41365945 0.15650344 2.8631064e-39
0.9935537 0.41510415 0.15677297 3.3212077e-39
0.99548596 0.41901159 0.15682915 3.3212077e-39
0.99496329 0.42504656 0.15610135 2.6787137e-39
0.99608243 0.42815453 0.15622947 2.6787137e-39
0.99559706 0.42961073 0.15650111 2.6787137e-39
0.99511176 0.43106687 0.15677276 2.6787137e-39
0.99622649 0.43418783 0.15690333 2.6787137e-39
0.99457139 0.43714136 0.15604281 2.6787137e-39
0.99408495 0.43860084 0.15631509 2.6787137e-39
0.99359858 0.44006026 0.15658733 2.8605883e-39
0.9955017 0.44404161 0.1566478 2.8605883e-39
0.99501365 0.44550598 0.156921 2.8605883e-39
0.9992379 0.40203333 0.15712905 3.2311785e-39
0.99875641 0.40347791 0.15739855 3.5981533e-39
0.99827486 0.4049226 0.15766805 3.5981533e-39
0.99779338 0.4063673 0.15793756 3.0471473e-39
0.99567354 0.41073573 0.15735525 3.413762e-39
0.99519199 0.41218042 0.15762478 2.8631064e-39
0.99471051 0.41362512 0.15789428 2.955302e-39
0.99664676 0.41752756 0.15795428 2.955302e-39
0.99500281 0.42046118 0.15709957 2.8631064e-39
0.99612671 0.42355919 0.15722901 2.8631064e-39
0.99724841 0.42666376 0.15735966 2.8631064e-39
0.99676311 0.4281199 0.15763131 2.8631064e-39
0.99627775 0.42957604 0.15790296 2.8631064e-39
0.99574006 0.43564725 0.15717557 2.6787137e-39
0.99525362 0.43710667 0.15744781 2.7709108e-39
0.99476719 0.43856609 0.15772009 2.6787137e-39
0.9966743 0.44254243 0.15778437 2.6787137e-39
0.9977808 0.44568801 0.15791953 2.6787137e-39
0.99924934 0.39750719 0.15812093 3.7818341e-39
0.99876893 0.39894867 0.15838984 3.7821844e-39
0.99828851 0.40039003 0.15865871 3.7821844e-39
0.99943173 0.40344357 0.15878937 3.2315288e-39
0.99731189 0.407812 0.15820706 3.0471473e-39
0.99683034 0.4092567 0.15847659 3.5059577e-39
0.99877381 0.41314423 0.15853855 3.5059577e-39
0.99777436 0.42061889 0.15808564 2.955302e-39
0.99729013 0.42207175 0.15835667 2.955302e-39
0.99841446 0.42517292 0.15848988 2.955302e-39
0.9979291 0.42662907 0.15876153 3.0471473e-39
0.99579245 0.43103218 0.1581746 2.8631064e-39
0.99690866 0.43415308 0.15830833 3.3215608e-39
0.99642229 0.43561256 0.15858057 3.3215608e-39
0.99593586 0.43707192 0.15885282 3.413762e-39
0.99569815 0.44547117 0.15833071 3.136815e-39
0.9994427 0.39891434 0.15977749 3.8743815e-39
0.99895024 0.40488827 0.15905887 3.3237244e-39
0.9984687 0.40633297 0.1593284 3.4155711e-39
0.99798721 0.40777767 0.1595979 3.2311785e-39
0.99750572 0.40922236 0.15986741 3.5985064e-39
0.99586737 0.41214609 0.1590156 3.5063108e-39
0.99538583 0.41359079 0.1592851 3.5985064e-39
0.99893779 0.41913146 0.1592133 3.3237244e-39
0.99845356 0.42058432 0.15948436 3.2315288e-39
0.99796927 0.42203724 0.15975538 3.5063108e-39
0.99909514 0.42513835 0.15989175 3.5985064e-39
0.9974438 0.42808521 0.15903318 2.9549517e-39
0.99695849 0.42954141 0.15930483 2.8631064e-39
0.99647313 0.43099755 0.15957648 2.8631064e-39
0.9975909 0.43411839 0.15971333 2.8631064e-39
0.99544942 0.4385314 0.15912509 3.3212077e-39
0.9973588 0.44250762 0.15919414 3.4144655e-39
0.99846685 0.44565308 0.15933239 3.4144655e-39
0.99797773 0.44712073 0.15960619 3.4144655e-39
0.99773294 0.3787818 0.16074258 3.6006714e-39
0.99896228 0.40035582 0.16004637 3.8743815e-39
0.99962556 0.40485394 0.16044968 3.8747346e-39
0.99914408 0.40629864 0.16071919 4.1509768e-39
0.99702424 0.41066706 0.16013691 3.5985064e-39
0.99654269 0.41211176 0.16040641 3.5063108e-39
0.99606121 0.4135564 0.16067594 3.3215608e-39
0.99961692 0.41909689 0.16061202 3.3212077e-39
0.99913269 0.42054975 0.16088307 3.3212077e-39
0.99860984 0.4265945 0.1601634 3.7818341e-39
0.99812448 0.42805064 0.16043505 3.413053e-39
0.999246 0.43116486 0.16057384 3.3215608e-39
0.99875957 0.43262422 0.16084608 3.2293652e-39
0.99550247 0.43390989 0.16011977 2.8631064e-39
0.99661809 0.43703723 0.16025785 3.3212077e-39
0.99613166 0.43849671 0.16053012 3.136815e-39
0.99804336 0.44247282 0.16060385 3.2293652e-39
0.99725747 0.38020849 0.16100872 3.9665771e-39
0.99963611 0.40032148 0.16143405 3.8747346e-39
0.99704063 0.40612143 0.16112196 3.8740311e-39
0.99818105 0.40918797 0.16125822 3.7828879e-39
0.99769956 0.41063267 0.16152769 3.5066611e-39
0.99721801 0.41207737 0.16179723 3.2297155e-39
0.99864846 0.42200267 0.16115409 3.3215608e-39
0.99816424 0.42345548 0.16142511 3.5063108e-39
0.99929053 0.42655981 0.16156524 3.871513e-39
0.99880522 0.42801595 0.16183689 3.6871217e-39
0.99827313 0.4340837 0.16111836 3.3212077e-39
0.99778676 0.43554312 0.1613906 3.2290121e-39
0.99730033 0.43700254 0.16166288 3.1371681e-39
0.99681389 0.43846202 0.16193512 2.953137e-39
0.99628371 0.37859547 0.16251394 3.9665771e-39
0.99839991 0.37874788 0.16211605 3.5084758e-39
0.99744886 0.38160121 0.16264832 4.1513271e-39
0.99671429 0.39483249 0.16287783 3.8750849e-39
0.99771446 0.40608716 0.16250962 3.8743815e-39
0.9998194 0.40626425 0.16211003 4.0591315e-39
0.99885637 0.40915358 0.16264904 3.047848e-39
0.99837488 0.41059828 0.16291854 2.4943141e-39
0.99673653 0.41352201 0.16206673 2.8612917e-39
0.99867964 0.41742408 0.16214094 2.768387e-39
0.99819654 0.41887367 0.16241133 2.8609414e-39
0.9993276 0.4219681 0.16255277 3.3190427e-39
0.99884337 0.42342097 0.16282383 3.3190427e-39
0.99831986 0.42947215 0.16210854 2.9527839e-39
0.99783456 0.43092829 0.16238019 2.9527839e-39
0.99895537 0.43404901 0.16252339 2.8605883e-39
0.998469 0.43550837 0.16279563 2.8605883e-39
0.99694908 0.37856162 0.16388425 3.5059577e-39
0.99906677 0.37871397 0.16348952 3.5985064e-39
0.99438608 0.38428903 0.16357607 3.5981533e-39
0.99391168 0.38571244 0.16384161 3.8743815e-39
0.99982953 0.40172863 0.16309062 3.5063108e-39
0.99934912 0.40317005 0.16335949 3.3215608e-39
0.9988687 0.40461141 0.16362837 3.3215608e-39
0.99838823 0.40605289 0.16389728 3.2293652e-39
0.99789339 0.41204298 0.16318804 2.6758383e-39
0.99741185 0.41348767 0.16345757 1.6620451e-39
0.99693036 0.41493237 0.16372705 1.2907388e-39
0.99644881 0.41637707 0.16399658 1.9361082e-39
0.99835914 0.42487383 0.16309485 2.7683926e-39
0.99787492 0.42632675 0.1633659 2.6758383e-39
0.99739069 0.42777956 0.16363692 2.6758383e-39
